-7.071032247654365221e+01,2.013555799338699970e+01,6.100068472872775871e+00,3.038582071731987799e-01,2.552179509177107120e-01,-9.178965014983195836e-01
-7.037586591959097859e+01,1.976358873160011598e+01,6.099911525341568108e+00,1.955605140237983153e-01,1.642560657942645219e-01,-9.668381613302911015e-01
-6.993515888734290797e+01,1.926948647258386416e+01,6.099841261734320064e+00,5.112872086842099040e-02,4.346466020262182428e-02,-9.977457978943483630e-01
-6.949652839461721499e+01,1.877557342194555190e+01,6.099870996965288228e+00,-5.731482899342209975e-02,-4.931917700401358684e-02,-9.971372168147679682e-01
-6.905888371264258296e+01,1.828273195776876392e+01,6.099955391894305912e+00,-1.325556338025578873e-01,-1.154720333187141124e-01,-9.844263372484728380e-01
-6.862137655401002689e+01,1.779165723284743450e+01,6.100063259533026638e+00,-1.830267705056568550e-01,-1.614247571493790667e-01,-9.697645327900652479e-01
-6.818337622671063514e+01,1.730291665383327526e+01,6.100174122752380690e+00,-2.165261909915310312e-01,-1.933726453112376842e-01,-9.569343909903298417e-01
-6.774437819188234755e+01,1.681692042697316580e+01,6.100275475412921367e+00,-2.390546373932673219e-01,-2.156248552599323298e-01,-9.467622732951006537e-01
-6.748976811136097353e+01,1.653710602332912671e+01,6.100326947090052521e+00,-2.492237978158762524e-01,-2.247973346903683334e-01,-9.419945100255827652e-01
-6.710560507075251735e+01,1.611804569584644042e+01,6.100392718988701724e+00,-2.588197782491284960e-01,-2.382515936307516291e-01,-9.360814604079493728e-01
-6.672044415362545067e+01,1.570191028453664472e+01,6.100443894374151910e+00,-2.665138958936078550e-01,-2.481086637241385062e-01,-9.313497915824286988e-01
-6.633408071518098836e+01,1.528870078492023588e+01,6.100481076891044019e+00,-2.722230336874790768e-01,-2.563146357164554634e-01,-9.274682891870354995e-01
-6.594626000965450885e+01,1.487831231565253454e+01,6.100505682740113400e+00,-2.765926935276820653e-01,-2.634252036379490791e-01,-9.241772795169803656e-01
-6.555713397372423401e+01,1.447102719120839787e+01,6.100519573127496820e+00,-2.800569568496815154e-01,-2.698206887895929218e-01,-9.212843734815029384e-01
-6.516655221059608039e+01,1.406677333806299224e+01,6.100524841601345116e+00,-2.828838533572556879e-01,-2.757355281841531447e-01,-9.186656867472284826e-01
-6.477448963043099184e+01,1.366558639129525865e+01,6.100523592963964070e+00,-2.852360051904600513e-01,-2.813118929608804941e-01,-9.162445308004594224e-01
-6.438100443014016605e+01,1.326756763107040804e+01,6.100517819243318485e+00,-2.872009203074630257e-01,-2.866263475561509622e-01,-9.139808358281736878e-01
-6.398603519337795120e+01,1.287268334509215784e+01,6.100509307993469577e+00,-2.888044276705655222e-01,-2.916930112378493534e-01,-9.118701605781786013e-01
-6.358956865143249360e+01,1.248094122418045870e+01,6.100499590158920071e+00,-2.900488056973764550e-01,-2.965064630946910307e-01,-9.099206600888904983e-01
-6.319154006232546550e+01,1.209229435825057131e+01,6.100489914135417635e+00,-2.909105666092473563e-01,-3.010296264564462643e-01,-9.081586900044392729e-01
-6.279204568133978626e+01,1.170685060112911913e+01,6.100481246785435019e+00,-2.913719518431699962e-01,-3.052356940331218405e-01,-9.066055133117268960e-01
-6.239096746761786960e+01,1.132450956228063710e+01,6.100474275596664775e+00,-2.914003104354602747e-01,-3.090729132526987000e-01,-9.052954177347894982e-01
-6.198844811613349748e+01,1.094542092920940668e+01,6.100469439475356914e+00,-2.909877642567936240e-01,-3.125236516796536801e-01,-9.042428259011222602e-01
-6.158439769447702616e+01,1.056951420227777128e+01,6.100466948331112249e+00,-2.901109558089821072e-01,-3.155420698896980181e-01,-9.034759739192425032e-01
-6.117882527058005593e+01,1.019681536462300642e+01,6.100466821276334883e+00,-2.887741273102725215e-01,-3.181206241754237496e-01,-9.029998736823994232e-01
-6.077172709145342111e+01,9.827340609627094992e+00,6.100468918865800561e+00,-2.869720054668465359e-01,-3.202353093619511593e-01,-9.028269018567134374e-01
-6.036301277711771007e+01,9.461031364539486788e+00,6.100472978449033690e+00,-2.847090781794804348e-01,-3.218716086574840429e-01,-9.029614655911036847e-01
-5.995276196689408010e+01,9.097984726288455448e+00,6.100478644479143675e+00,-2.820047213347178228e-01,-3.230335393737669980e-01,-9.033950794555974939e-01
-5.954085706136655176e+01,8.738124840814329275e+00,6.100485502665095261e+00,-2.788782072620858976e-01,-3.237223046933652149e-01,-9.041188057762659103e-01
-5.912734058078033428e+01,8.381519895665668685e+00,6.100493102909559262e+00,-2.753639252747994148e-01,-3.239618719348664189e-01,-9.051096144609844796e-01
-5.871224294214798078e+01,8.028227143599259819e+00,6.100500985588398706e+00,-2.714930866919044172e-01,-3.237675148233539191e-01,-9.063476707222297701e-01
-5.829551820350096847e+01,7.678239629437154434e+00,6.100508703986858627e+00,-2.673098316473639380e-01,-3.231769210196391851e-01,-9.078007114036229508e-01
-5.787708630953464706e+01,7.331524898048886740e+00,6.100515840486717245e+00,-2.628539702030008307e-01,-3.222188959017077692e-01,-9.094409125789341131e-01
-5.745695589020743199e+01,6.988126248331031576e+00,6.100522017843891476e+00,-2.581795368585162453e-01,-3.209485355352887925e-01,-9.112273943891697758e-01
-5.703515945324580372e+01,6.648105549017817140e+00,6.100526911238891792e+00,-2.533309793844487068e-01,-3.194085850095204071e-01,-9.131273573310197955e-01
-5.661164259118287845e+01,6.311454161396785167e+00,6.100530256852789712e+00,-2.483517264514654432e-01,-3.176408872367192382e-01,-9.151096583055204903e-01
-5.618634636915108871e+01,5.978161663470050513e+00,6.100531854497866391e+00,-2.432908234522976609e-01,-3.157009501152448494e-01,-9.171382040457342066e-01
-5.575936020008775529e+01,5.648333110702704829e+00,6.100531569737780657e+00,-2.381949612215717438e-01,-3.136417875894145779e-01,-9.191800637124210027e-01
-5.533050763519027981e+01,5.321867536009836641e+00,6.100529333846682611e+00,-2.331039943971890960e-01,-3.115131973129938725e-01,-9.212068473996005702e-01
-5.489989220699921191e+01,4.998879044183503595e+00,6.100525142172106285e+00,-2.280576180893125748e-01,-3.093650941129144072e-01,-9.231917251448568118e-01
-5.446742452569225890e+01,4.679334249905846121e+00,6.100519048928115140e+00,-2.230903534812774258e-01,-3.072441661573102611e-01,-9.251117319253376881e-01
-5.403323764186652056e+01,4.363362922277687517e+00,6.100511166458583823e+00,-2.184602395038513500e-01,-3.050464076947005387e-01,-9.269421842318315008e-01
-5.368290955891523453e+01,4.111935845641301768e+00,6.100503638669803053e+00,-2.153500495953009353e-01,-3.030329123987585138e-01,-9.283293651190981377e-01
-5.359709612708863347e+01,4.050825370091914124e+00,6.100501649475202015e+00,-2.148751974505143936e-01,-3.023647173894521423e-01,-9.286572172758897903e-01
-5.315915016741699617e+01,3.741860713417242579e+00,6.100490702160662693e+00,-2.090246651596048000e-01,-3.015757100778734823e-01,-9.302476984362506585e-01
-5.271927984568663561e+01,3.436413763825310497e+00,6.100478557871374719e+00,-2.046912880087497777e-01,-3.000508899385639916e-01,-9.317032467800006046e-01
-5.227755343895989881e+01,3.134560639031505502e+00,6.100465482404936246e+00,-2.005683574196186481e-01,-2.987766050238472304e-01,-9.330085070846997342e-01
-5.183387336709520810e+01,2.836262306846261794e+00,6.100451757071297720e+00,-1.966524815332659215e-01,-2.977559745418157378e-01,-9.341676408072923099e-01
-5.138823340520812621e+01,2.541542445391559824e+00,6.100437678707334221e+00,-1.931088878058586922e-01,-2.969119824260300633e-01,-9.351749740782357989e-01
-5.100405436182771268e+01,2.291378670221778435e+00,6.100425540078866504e+00,-1.909081120245725571e-01,-2.959673606950471436e-01,-9.359259661781059725e-01
-5.094063922618325790e+01,2.250431225276653180e+00,6.100423550538995876e+00,-1.907525412793781294e-01,-2.957261773196093180e-01,-9.360339182120431811e-01
-5.049113808598796993e+01,1.962983545083229586e+00,6.100409676304725082e+00,-1.861822909628477463e-01,-2.964059549154727802e-01,-9.367388453685863148e-01
-5.003969969870383494e+01,1.679202611300166126e+00,6.100396350195866901e+00,-1.835619941500479524e-01,-2.963218357953847359e-01,-9.372824355201108126e-01
-4.975817020487113496e+01,1.504699648456810479e+00,6.100388469663289293e+00,-1.831913116968642563e-01,-2.957234477383519078e-01,-9.375439113857678697e-01
-4.930912291903106137e+01,1.230261448003570734e+00,6.100376761687222427e+00,-1.786627631783533621e-01,-2.975689262758282605e-01,-9.378338611761287691e-01
-4.885858721686641815e+01,9.596940596790730638e-01,6.100366278120496588e+00,-1.761601237202710390e-01,-2.985905553521633338e-01,-9.379825643717187855e-01
-4.840663100792528439e+01,6.930427896515567454e-01,6.100357235083304630e+00,-1.738253865156750011e-01,-2.999138926935005500e-01,-9.379959445392648254e-01
-4.795355525807612196e+01,4.304831687495571657e-01,6.100349823801490601e+00,-1.716295058516122685e-01,-3.014991072642805303e-01,-9.378921052231824484e-01
-4.749948508687167248e+01,1.720783867921085175e-01,6.100344199319486904e+00,-1.696835501407537583e-01,-3.032514232120179787e-01,-9.376812182887721558e-01
-4.709438877028851778e+01,-5.449320523461054222e-02,6.100340794130775457e+00,-1.688520331575393552e-01,-3.045429970732246860e-01,-9.374126913116885840e-01
-4.704417054652694929e+01,-8.232164248296314213e-02,6.100340481088373679e+00,-1.689038615170804225e-01,-3.046364751537243842e-01,-9.373729799661035811e-01
-4.658777563479280559e+01,-3.326322086472295325e-01,6.100338761838048462e+00,-1.656985588323689473e-01,-3.076240393016445585e-01,-9.369692834050731278e-01
-4.613023547514156064e+01,-5.788977049819123977e-01,6.100339100451286356e+00,-1.638984544376753116e-01,-3.100851645857518601e-01,-9.364744990317507289e-01
-4.567158790020444314e+01,-8.211064545830311090e-01,6.100341525157088718e+00,-1.625670798131035599e-01,-3.125224561877311125e-01,-9.358961795730484923e-01
-4.536283454090639822e+01,-9.815551558265696031e-01,6.100344325861677852e+00,-1.618533238732036417e-01,-3.141677887305549532e-01,-9.354689209564096553e-01
-4.521166197413233334e+01,-1.059355649600291827e+00,6.100346036036648378e+00,-1.621190614848872502e-01,-3.146836026529837294e-01,-9.352495068828415858e-01
-4.475058520600978085e+01,-1.293585725154137833e+00,6.100352602780342082e+00,-1.587898223582392965e-01,-3.184382112431941025e-01,-9.345495695444269169e-01
-4.428830866566547542e+01,-1.523829394348148014e+00,6.100361169778350856e+00,-1.571107233521315816e-01,-3.214303599732595829e-01,-9.338087300380260025e-01
-4.382475239860514904e+01,-1.750132570384902664e+00,6.100371658417469867e+00,-1.554027594733101147e-01,-3.244478640072994136e-01,-9.330506770209116008e-01
-4.336002428401767617e+01,-1.972449224319888117e+00,6.100383963732382675e+00,-1.539625863102292158e-01,-3.273208732242059438e-01,-9.322856686490512690e-01
-4.300368165239470386e+01,-2.139851368310164759e+00,6.100394529056720749e+00,-1.532954137744120815e-01,-3.292984004616291149e-01,-9.316990284255665111e-01
-4.289383739946974572e+01,-2.190920752868354526e+00,6.100397972023493764e+00,-1.534925286960417135e-01,-3.297218288395666330e-01,-9.315168056568738919e-01
-4.242643011581835566e+01,-2.405438993374840351e+00,6.100413537978777612e+00,-1.500279808473682919e-01,-3.334540445585513213e-01,-9.307523865832444399e-01
-4.195771810007210689e+01,-2.616048545632729372e+00,6.100430511164770309e+00,-1.481432293409214729e-01,-3.364191673403644223e-01,-9.299869501484733236e-01
-4.148761767498638875e+01,-2.822790573950793913e+00,6.100448730661958585e+00,-1.461998054374109846e-01,-3.393363113951031740e-01,-9.292343540027073745e-01
-4.101619948485337375e+01,-3.025637488124885977e+00,6.100468021209664471e+00,-1.443222240023877834e-01,-3.421304329322040760e-01,-9.285030223540617911e-01
-4.058878572881498314e+01,-3.205711805762607725e+00,6.100486238089095181e+00,-1.435551853913136777e-01,-3.441629294381531312e-01,-9.278705657298406129e-01
-4.054325614409711420e+01,-3.224680174001690602e+00,6.100488213328080001e+00,-1.436167530003467641e-01,-3.443105332228967308e-01,-9.278062755604759015e-01
-4.006899278119870189e+01,-3.419834033284406161e+00,6.100509117248811286e+00,-1.399155173795937623e-01,-3.475306844494376879e-01,-9.271710043797239953e-01
-3.959314729724312087e+01,-3.611207987839403444e+00,6.100530563180751820e+00,-1.376299044939194305e-01,-3.499439269913696693e-01,-9.266052327452364290e-01
-3.911594640612389640e+01,-3.798711565917017197e+00,6.100552361877217500e+00,-1.355620306903961292e-01,-3.520554423507306629e-01,-9.261100913748470109e-01
-3.874264017608055610e+01,-3.942336748729211138e+00,6.100569504115673780e+00,-1.344395558534968727e-01,-3.533685794198862529e-01,-9.257735429902315127e-01
-3.863705226168929840e+01,-3.982476851684413788e+00,6.100574354403184074e+00,-1.345151693150195560e-01,-3.535673261452354499e-01,-9.256866722096955824e-01
-3.815670308369755048e+01,-4.162410567795291172e+00,6.100596362434662190e+00,-1.302340119063221668e-01,-3.560924449904955269e-01,-9.253308990644778520e-01
-3.767473258103368039e+01,-4.338574329661817330e+00,6.100618235230739650e+00,-1.276118658670851724e-01,-3.578007477412291082e-01,-9.250372082277222852e-01
-3.719127090096664290e+01,-4.510919595780130464e+00,6.100639819615033765e+00,-1.253967009853843295e-01,-3.591666723483807333e-01,-9.248107746215832314e-01
-3.686781396987124992e+01,-4.623806511564673372e+00,6.100653996045781291e+00,-1.240407232845659735e-01,-3.599202782822621405e-01,-9.247006500745312829e-01
-3.670621740948379852e+01,-4.679481887310387833e+00,6.100660985695123273e+00,-1.240727353599044847e-01,-3.600131654789756053e-01,-9.246601954351224562e-01
-3.621938004619339324e+01,-4.844323906816622838e+00,6.100681621375320773e+00,-1.221933959612101217e-01,-3.608153678904206241e-01,-9.245977743200376464e-01
-3.573097352226608336e+01,-5.005369490660644516e+00,6.100701612785236705e+00,-1.192656577467607476e-01,-3.617036803935009259e-01,-9.246329814969984628e-01
-3.524068317311453313e+01,-5.162717917881149532e+00,6.100720884556848134e+00,-1.162507075885551994e-01,-3.623187504039047657e-01,-9.247761329591681623e-01
-3.474876197086172169e+01,-5.316283028584120274e+00,6.100739356037844452e+00,-1.104666781510936918e-01,-3.634996748040004166e-01,-9.250216751166691065e-01
-3.432580816867093176e+01,-5.444900760814007867e+00,6.100754512407646324e+00,-1.088213081873809496e-01,-3.632936086925340202e-01,-9.252976152393040943e-01
-3.425485541097830833e+01,-5.466169552679655652e+00,6.100756987873901416e+00,-1.087854380454988945e-01,-3.631738583099506923e-01,-9.253488407673685634e-01
-3.375922792478421286e+01,-5.612290504910021127e+00,6.100773736506864608e+00,-1.068441968482760629e-01,-3.627126929698819002e-01,-9.257558101132192796e-01
-3.326170850983716321e+01,-5.754691185849409862e+00,6.100789592880792256e+00,-1.036255198825290630e-01,-3.624239234507337093e-01,-9.262346632142700598e-01
-3.276249641916278676e+01,-5.893310215627973747e+00,6.100804554914584621e+00,-9.786355426963368187e-02,-3.626224074035130363e-01,-9.267835315728236711e-01
-3.238954255398104465e+01,-5.994106565273476406e+00,6.100815131989339335e+00,-9.613324724022212497e-02,-3.619121426660575347e-01,-9.272421473196272856e-01
-3.226123241137821651e+01,-6.028241391474143285e+00,6.100818655991322892e+00,-9.602766611358724835e-02,-3.615146621599633625e-01,-9.274081282715527230e-01
-3.175821038188945522e+01,-6.159399267833737923e+00,6.100831928625205514e+00,-9.378129461360819319e-02,-3.602877810327695385e-01,-9.281151779919767364e-01
-3.125308095725934265e+01,-6.286868407806057490e+00,6.100844440421159476e+00,-9.043648057192509027e-02,-3.590930388157262954e-01,-9.289098085690833395e-01
-3.074573751839400870e+01,-6.410663985894569095e+00,6.100856268282048411e+00,-8.706513992929627854e-02,-3.576340825047133465e-01,-9.297943452399052289e-01
-3.023635892769999600e+01,-6.530732116603079618e+00,6.100867498506987729e+00,-8.101419137123005987e-02,-3.565752687490286732e-01,-9.307474300329943162e-01
-2.977096462164490731e+01,-6.636768931884930112e+00,6.100877289289911687e+00,-7.910690124640624987e-02,-3.545871202345258766e-01,-9.316705814497832083e-01
-2.972464184755742167e+01,-6.647133131005226403e+00,6.100878242947507246e+00,-7.905550528128962862e-02,-3.543567440350384179e-01,-9.317625904926675195e-01
-2.921084324176453606e+01,-6.759797462252674194e+00,6.100888614848116731e+00,-7.695111359023457109e-02,-3.520106476688955599e-01,-9.328274385141912539e-01
-2.869477264824271856e+01,-6.868757239650548740e+00,6.100898748870671184e+00,-7.360898628697870594e-02,-3.497938887708511579e-01,-9.339303788379350602e-01
-2.817678042830773677e+01,-6.973931450589262226e+00,6.100908779324062614e+00,-6.850835599573613932e-02,-3.477840028884812695e-01,-9.350683892067074288e-01
-2.800937962438607087e+01,-7.007030400829279415e+00,6.100912015379205577e+00,-6.831666885257314803e-02,-3.468108993745735447e-01,-9.354437625169603754e-01
-2.748809389385938573e+01,-7.107337218107943499e+00,6.100922154438989331e+00,-6.365732894913279927e-02,-3.444736759253677061e-01,-9.366352710983750773e-01
-2.711361998345270763e+01,-7.176831186154096542e+00,6.100929561672901791e+00,-6.190654693695262639e-02,-3.423881683297473888e-01,-9.375168913860396636e-01
-2.696440471732474009e+01,-7.203929425197479475e+00,6.100932557088349917e+00,-6.173485925241491146e-02,-3.414386107345949717e-01,-9.378744490883170748e-01
-2.643822162772522688e+01,-7.296810644833414017e+00,6.100943387974829157e+00,-5.943850650293815846e-02,-3.382921493817014347e-01,-9.391621189184584662e-01
-2.590913576849774813e+01,-7.386034907499311686e+00,6.100954821486848090e+00,-5.623758096568744896e-02,-3.351512345773920987e-01,-9.404844413643309586e-01
-2.537708556731553244e+01,-7.471589830585404712e+00,6.100967026431153073e+00,-5.308598228386064016e-02,-3.318909111881876428e-01,-9.418228610283528868e-01
-2.484219085953210993e+01,-7.553435050583466648e+00,6.100980166163822105e+00,-4.776622987485017874e-02,-3.288598385989582318e-01,-9.431699708113113756e-01
-2.442125605945423672e+01,-7.614936303344524759e+00,6.100991215765775522e+00,-4.609964757745672881e-02,-3.260602964066129927e-01,-9.442242877624288377e-01
-2.430432768556539713e+01,-7.631569406271399458e+00,6.100994406325503938e+00,-4.598122433743612181e-02,-3.252226952801040016e-01,-9.445188857207541533e-01
-2.376354306250645720e+01,-7.705966077981251772e+00,6.101009902666761242e+00,-4.396434482597705307e-02,-3.215787066882446754e-01,-9.458616557344622366e-01
-2.321997775348150128e+01,-7.776588926132912860e+00,6.101026799395693700e+00,-4.103790268701710403e-02,-3.179721587953224238e-01,-9.472114847139962990e-01
-2.267342457192104632e+01,-7.843448401249879964e+00,6.101045241043824063e+00,-3.817641653388914591e-02,-3.142972891752522924e-01,-9.485566800343134819e-01
-2.212398706150931105e+01,-7.906515276325620789e+00,6.101065350061586123e+00,-3.333330587117103866e-02,-3.107443684129918560e-01,-9.499088525849781472e-01
-2.169764747969882990e+01,-7.952620890327317227e+00,6.101082093486509983e+00,-3.185782254429288252e-02,-3.076888718215128882e-01,-9.509535410838643177e-01
-2.157103396837946718e+01,-7.965840655187626851e+00,6.101087263336501643e+00,-3.176016198255784267e-02,-3.067456476567122503e-01,-9.512614781197155089e-01
-2.101453030935184074e+01,-8.021400708682108416e+00,6.101111082804807850e+00,-2.996060063884817617e-02,-3.027285903077624463e-01,-9.526057752394924139e-01
-2.045447594030299854e+01,-8.073168828258598495e+00,6.101136891101938353e+00,-2.736297648923071910e-02,-2.987924025839284736e-01,-9.539257663339287818e-01
-1.989081641664790823e+01,-8.121124206558498315e+00,6.101164753661030282e+00,-2.483588956867627262e-02,-2.948408766050463758e-01,-9.552235529299413219e-01
-1.932351577888900351e+01,-8.165244493257084457e+00,6.101194713941414882e+00,-2.238354254894366416e-02,-2.909006458361551584e-01,-9.564913963413719244e-01
-1.875253827474293189e+01,-8.205507742807682803e+00,6.101226792641678998e+00,-1.808616606948574776e-02,-2.871081640754564179e-01,-9.577274104452309089e-01
-1.825423020976677435e+01,-8.237293892373021009e+00,6.101256333637674167e+00,-1.685532207688020950e-02,-2.836651010385245475e-01,-9.587752648929196431e-01
-1.817801253067520406e+01,-8.241882663467592351e+00,6.101260976324452301e+00,-1.682371733363806354e-02,-2.831332119032005656e-01,-9.589330252173273728e-01
-1.759969088344527677e+01,-8.274362964385630903e+00,6.101297248470487489e+00,-1.546136641502920267e-02,-2.791731684179490913e-01,-9.601162888859159361e-01
-1.701718963389356531e+01,-8.302943072864366059e+00,6.101335578360433942e+00,-1.329320967630781038e-02,-2.752525470569707200e-01,-9.612800455201137018e-01
-1.643036899362830638e+01,-8.327598886161236891e+00,6.101375895401223381e+00,-1.119744757070578398e-02,-2.713611429780603546e-01,-9.624124621229412924e-01
-1.583917952204677704e+01,-8.348301349367915236e+00,6.101418096002358737e+00,-9.172105614500835474e-03,-2.675125109540520962e-01,-9.635107311087172111e-01
-1.524357444122037464e+01,-8.365021850690396832e+00,6.101462048670269311e+00,-5.597763191568425577e-03,-2.637166693772058368e-01,-9.645839431277325460e-01
-1.477308051470798489e+01,-8.375335955209905592e+00,6.101497662729594040e+00,-4.644876764365093828e-03,-2.607460038396500202e-01,-9.653962640291794406e-01
-1.464349702017544530e+01,-8.377732601679245050e+00,6.101507595052342303e+00,-4.630514801408100109e-03,-2.599397769711441764e-01,-9.656137274712212060e-01
-1.403896250702993598e+01,-8.386405465011993243e+00,6.101554544040165950e+00,-3.502897347617740190e-03,-2.562122982872428456e-01,-9.666141877277308891e-01
-1.342979259499144007e+01,-8.391015569398511786e+00,6.101602693245310682e+00,-1.741794492147457404e-03,-2.524744543284626053e-01,-9.676019925896660601e-01
-1.281584058523581859e+01,-8.391535422682114387e+00,6.101651813073235786e+00,-4.686754280931614187e-05,-2.487461537422821778e-01,-9.685687114510019846e-01
-1.219663318719122458e+01,-8.387932833734673466e+00,6.101701676508595185e+00,1.585074727605943279e-03,-2.450068216198425519e-01,-9.695200590487287329e-01
-1.157203874735903071e+01,-8.380170790954387883e+00,6.101752006458291078e+00,3.153922866960560609e-03,-2.412498372718081263e-01,-9.704579170612579464e-01
-1.094186513778218739e+01,-8.368209982118237633e+00,6.101802509095315408e+00,4.658877969141351008e-03,-2.375013834879645680e-01,-9.713760279610422765e-01
-1.030604521178547373e+01,-8.352012287654105194e+00,6.101852861012029727e+00,6.101786511718357460e-03,-2.337408467030860637e-01,-9.722797872957608112e-01
-9.664412335762889938e+00,-8.331537068678684932e+00,6.101902729657675550e+00,8.810354115996659602e-03,-2.299319877457177419e-01,-9.731668195492764184e-01
-9.137055884057900812e+00,-8.311656451111954169e+00,6.101942775463837343e+00,9.412128374717840598e-03,-2.268666544926348227e-01,-9.738803483584507203e-01
-9.016841480464435676e+00,-8.306743951496368794e+00,6.101951764805158440e+00,9.383231749280261658e-03,-2.261701403272775024e-01,-9.740426184650643471e-01
-8.363170631054970272e+00,-8.277590538750196458e+00,6.101999607684068572e+00,1.005479082924872966e-02,-2.223481350157703595e-01,-9.749154876379739765e-01
-7.702975529861348036e+00,-8.244019239519801090e+00,6.102045909187221895e+00,1.124438266428583535e-02,-2.184564964368846673e-01,-9.757819034102961364e-01
-7.036070496238053806e+00,-8.205979459455285507e+00,6.102090295981184020e+00,1.236820014088954242e-02,-2.144677753745445337e-01,-9.766527535164014617e-01
-6.362174246845114567e+00,-8.163413078262319544e+00,6.102132398194121343e+00,1.342431852120927992e-02,-2.104249730096663384e-01,-9.775178353391422714e-01
-5.681263953040541992e+00,-8.116277327870825786e+00,6.102171831277589220e+00,1.440993267305004655e-02,-2.062302367579745277e-01,-9.783973851595823001e-01
-4.993093142328561385e+00,-8.064515056004040616e+00,6.102208230492530916e+00,1.532107417367125843e-02,-2.019212411224867998e-01,-9.792819190967019249e-01
-4.297493871227274553e+00,-8.008073631220796074e+00,6.102241235779512607e+00,1.615210105360891449e-02,-1.973932447628757580e-01,-9.801913163018419750e-01
-3.594258138423128912e+00,-7.946896812005256550e+00,6.102270502352507009e+00,1.689393099159264625e-02,-1.926065393439561901e-01,-9.811306315152923396e-01
-2.882675865212959820e+00,-7.880879606754902511e+00,6.102295718148588399e+00,1.753378557538560686e-02,-1.874393563730820389e-01,-9.821196739938780063e-01
-2.082087421767695901e+00,-7.801780121919168920e+00,6.102318595887911812e+00,1.806938191739975233e-02,-1.814210911341964383e-01,-9.832394851351325959e-01
-1.272665989666876385e+00,-7.716751743280443776e+00,6.102335642985412534e+00,1.852641789696138352e-02,-1.749470554830973856e-01,-9.844035247893524465e-01
-4.540668163994752149e-01,-7.625734296120342037e+00,6.102346541860250717e+00,1.884027769393233423e-02,-1.681039617319000090e-01,-9.855892156402967785e-01
3.741739884542454320e-01,-7.528651450576557380e+00,6.102351016649262938e+00,1.900483063572884837e-02,-1.608581330383359875e-01,-9.867945467258766312e-01
1.212406168934776929e+00,-7.425437127969523488e+00,6.102348830264958224e+00,1.901234100347300171e-02,-1.531935147437946676e-01,-9.880132984580776156e-01
2.061178942914381196e+00,-7.315998100544291560e+00,6.102339782913301924e+00,1.884993291138190724e-02,-1.450436609733941062e-01,-9.892456805266683917e-01
2.920776181754590084e+00,-7.200272809445387168e+00,6.102323711289609598e+00,1.851278570500945395e-02,-1.364308413641463769e-01,-9.904766036056135148e-01
3.791942341840226049e+00,-7.078135740168995937e+00,6.102300471410499583e+00,1.799435997101441961e-02,-1.273398721311491677e-01,-9.916959009569698003e-01
4.675044849098881627e+00,-6.949509806266476630e+00,6.102269944798631940e+00,1.727653056206490331e-02,-1.176752151458873852e-01,-9.929018406832103016e-01
5.570894004967712476e+00,-6.814251512256561227e+00,6.102232005138287008e+00,1.635239586493447694e-02,-1.074428508854118752e-01,-9.940767741694258586e-01
6.480194403326734687e+00,-6.672227420335417492e+00,6.102186517918563702e+00,1.550989031242807833e-02,-9.661622686490978218e-02,-9.952008581230649131e-01
6.657285415275239870e+00,-6.644028292098013821e+00,6.102176857748867533e+00,1.516483018559102933e-02,-9.446673342395305040e-02,-9.954125095665865564e-01
7.403771525668631170e+00,-6.523281103362279509e+00,6.102133315284959281e+00,1.421112522749412924e-02,-8.511782941903342503e-02,-9.962695413565351155e-01
8.105596995752790690e+00,-6.407053218599621403e+00,6.102088271333172109e+00,1.290595106454645556e-02,-7.618110230972340025e-02,-9.970104693923704797e-01
8.342528016405324820e+00,-6.367238945471449085e+00,6.102072176603961395e+00,1.238882997237790613e-02,-7.312864576219872681e-02,-9.972455655759530080e-01
9.297288297901204146e+00,-6.203936914379326595e+00,6.102002816810555785e+00,1.045138402672768016e-02,-6.061333801181720965e-02,-9.981066034382254371e-01
1.026911213171716497e+01,-6.033168465913249179e+00,6.101924840060348743e+00,8.419111337070839945e-03,-4.752794112787885744e-02,-9.988344274084863805e-01
1.125916236580424368e+01,-5.854705406614996832e+00,6.101837717575037345e+00,6.175254767385183856e-03,-3.398627992632541339e-02,-9.994032214303331108e-01
1.226864704737521095e+01,-5.668309019594801157e+00,6.101740762156602216e+00,3.786393834119684658e-03,-2.007269798963094709e-02,-9.997913532418400973e-01
1.245653314444429327e+01,-5.633142440815426255e+00,6.101721792793282972e+00,3.294692446699736335e-03,-1.746605592249431127e-02,-9.998420284685947124e-01
1.329908542817098294e+01,-5.473681293220309385e+00,6.101633068832499340e+00,1.112823480345202613e-03,-5.748864938420871623e-03,-9.999828559409512652e-01
1.390814589928997691e+01,-5.356674338851021844e+00,6.101565113950930375e+00,-5.287649509241369944e-04,2.703786642006226950e-03,-9.999962049655094498e-01
1.435214493886370235e+01,-5.270493839853472196e+00,6.101513490898740955e+00,-1.735046231993577414e-03,8.871985212197858878e-03,-9.999591379116286038e-01
1.492370391590253575e+01,-5.158493763712804991e+00,6.101444369538583601e+00,-3.336233173991892589e-03,1.674821725763268876e-02,-9.998541727506566890e-01
1.536023487400660770e+01,-5.072174369212895328e+00,6.101389496912906552e+00,-4.541547896970174296e-03,2.279901520593959757e-02,-9.997297531074779142e-01
1.603106294921393271e+01,-4.938259141857088252e+00,6.101301536024497096e+00,-6.443440988365498751e-03,3.204442781333029233e-02,-9.994656756058937219e-01
1.681257448615512828e+01,-4.780397545404134974e+00,6.101193275311540987e+00,-8.767036593505800682e-03,4.269848498620307936e-02,-9.990495375351770013e-01
1.724892927948562260e+01,-4.691428362212334946e+00,6.101130004915014560e+00,-9.986257876618134105e-03,4.863651217436310709e-02,-9.987666215573760553e-01
1.844707814555715686e+01,-4.444269710112990879e+00,6.100945304363704302e+00,-1.362576572953889432e-02,6.461163493474843256e-02,-9.978174558201227118e-01
1.962678538828993169e+01,-4.197117153505587339e+00,6.100746747318379626e+00,-1.711455428087147942e-02,8.008443504636185428e-02,-9.966411466997898705e-01
2.078918479623025917e+01,-3.950279428782160096e+00,6.100533681860434321e+00,-2.053664098316596368e-02,9.500435275622789999e-02,-9.952649995526310356e-01
2.193530938245703510e+01,-3.704038937444757096e+00,6.100305531546841742e+00,-2.386695616321521732e-02,1.093348093278935090e-01,-9.937184047167166856e-01
2.306603820842990160e+01,-3.458669486541012361e+00,6.100061842173062132e+00,-2.710237937617497941e-02,1.231849738563241398e-01,-9.920135700927515954e-01
2.407477782547859135e+01,-3.238005645883902162e+00,6.099828108833584395e+00,-2.987183769017618881e-02,1.352868049150738050e-01,-9.903560742121404470e-01
2.418231074498889654e+01,-3.214394884142663500e+00,6.099802258770198549e+00,-3.015170362680925573e-02,1.365542919965298529e-01,-9.901736211926307485e-01
2.528479854612383804e+01,-2.971464659004297459e+00,6.099526610310761043e+00,-3.333600180055604906e-02,1.496313076868605318e-01,-9.881797320041902921e-01
2.637428746268155066e+01,-2.730074094054359080e+00,6.099234823207248191e+00,-3.631867762750471545e-02,1.623462586037437705e-01,-9.860652341365431228e-01
2.745141499508598315e+01,-2.490424792590125946e+00,6.098926976413663326e+00,-3.924407930173019060e-02,1.749178319525147296e-01,-9.838006171500357500e-01
2.851672216248358893e+01,-2.252716112399411941e+00,6.098603280346083011e+00,-4.210990790142791346e-02,1.873705524705169823e-01,-9.813862805865112282e-01
2.957080419268184812e+01,-2.017113690373378176e+00,6.098264013001661432e+00,-4.492474654413215751e-02,1.997822376316314152e-01,-9.788099022153606832e-01
3.061412199057795647e+01,-1.783793359199343342e+00,6.097909555191256104e+00,-4.768818182454371418e-02,2.121809553447181196e-01,-9.760661245547208598e-01
3.164717048154473389e+01,-1.552905201715439887e+00,6.097540315164213354e+00,-5.040679258885200076e-02,2.246328868048446115e-01,-9.731388500243046691e-01
3.267041919339902734e+01,-1.324588323061497874e+00,6.097156722641072335e+00,-5.307841586209623846e-02,2.371495294477987126e-01,-9.700220525597642585e-01
3.368424747004627307e+01,-1.098986640996827191e+00,6.096759233238302933e+00,-5.571588197131382980e-02,2.498268193411501414e-01,-9.666862473595262406e-01
3.468900099017521654e+01,-8.762373685639417431e-01,6.096348293368909488e+00,-5.831337572136710556e-02,2.626776754104491185e-01,-9.631199245436371514e-01
3.568508995069826994e+01,-6.564504051444259858e-01,6.095924282690739382e+00,-6.085485397983516481e-02,2.756499100316814888e-01,-9.593298774908549653e-01
3.667281929856628153e+01,-4.397470147430695420e-01,6.095487574335965775e+00,-6.333773389178593005e-02,2.887712376458441144e-01,-9.553007399630446539e-01
3.765252467766666200e+01,-2.262307266417309393e-01,6.095038473144459346e+00,-6.574872492877613384e-02,3.019997724405216188e-01,-9.510379816895399019e-01
3.862448135307273844e+01,-1.600824390563104771e-02,6.094577253149322971e+00,-6.808321015003440668e-02,3.153667359243906843e-01,-9.465244309409354129e-01
3.958898984096877882e+01,1.908283520191744742e-01,6.094104123126539818e+00,-7.031671558204473371e-02,3.287632557334492778e-01,-9.417909965535328221e-01
4.054628291952839447e+01,3.941807285669867156e-01,6.093619275979074601e+00,-7.244388705825220709e-02,3.422282554793585341e-01,-9.368199957192663296e-01
4.149666043735838628e+01,5.939722759151209175e-01,6.093122831775852788e+00,-7.443484506237242615e-02,3.556082481163968523e-01,-9.316663714614409342e-01
4.244032032143860533e+01,7.901115284566060382e-01,6.092614933233370778e+00,-7.628695332390883488e-02,3.689550069833050228e-01,-9.263112347232462795e-01
4.337749720376496043e+01,9.825208337819333337e-01,6.092095686923936881e+00,-7.797322087146880965e-02,3.821305145739674614e-01,-9.208129270695346591e-01
4.430840582261966176e+01,1.171123727711155027e+00,6.091565202751541896e+00,-7.948909552500796338e-02,3.951404792641131647e-01,-9.151751118444726441e-01
4.523324860898843269e+01,1.355845944289995941e+00,6.091023599438931235e+00,-8.082382232334549277e-02,4.079524260892128940e-01,-9.094186757445493763e-01
4.615221163708309859e+01,1.536614137484647813e+00,6.090471013086661500e+00,-8.196321796205616184e-02,4.205259766192461779e-01,-9.035706579397838611e-01
4.706556364290176475e+01,1.713374498568668969e+00,6.089907538549391042e+00,-8.349231254830039028e-02,4.326582842581762622e-01,-8.976835983842570421e-01
4.721289795154835645e+01,1.741606178563486651e+00,6.089815312342348186e+00,-8.366258353256462998e-02,4.346057171372724737e-01,-8.967265150246500616e-01
4.733301646557362119e+01,1.764563623098148071e+00,6.089739848674286193e+00,-8.396580949880125266e-02,4.361808984542543399e-01,-8.959330146048031240e-01
4.793116854094168389e+01,1.878079345308236725e+00,6.089360406739595000e+00,-8.426590468206818230e-02,4.441234534017793889e-01,-8.919941790429969375e-01
4.797321744757466888e+01,1.886008124974182465e+00,6.089333503711653606e+00,-8.435790901390674557e-02,4.446083622357643317e-01,-8.917438799435816188e-01
4.887572544889438575e+01,2.054520795426185487e+00,6.088748833568601526e+00,-8.416142402065221462e-02,4.564737993607446143e-01,-8.857474387227900481e-01
4.977301150266026752e+01,2.218801259119373981e+00,6.088153843425631706e+00,-8.448149941345040048e-02,4.678986618221248617e-01,-8.797350274496975597e-01
5.066528500474008467e+01,2.378794511883434382e+00,6.087548640110130194e+00,-8.459291231957581647e-02,4.789908320151484711e-01,-8.737344116095739910e-01
5.155269519021796043e+01,2.534436202638659097e+00,6.086933323389052575e+00,-8.450300722917726548e-02,4.898545513945964380e-01,-8.676991185008916529e-01
5.243538421468109334e+01,2.685662497616782218e+00,6.086307923740666759e+00,-8.421324307137041665e-02,5.004419438889429195e-01,-8.616646624343244909e-01
5.331350635163747143e+01,2.832413222573649136e+00,6.085672362840349514e+00,-8.373107498955485728e-02,5.108474013161016236e-01,-8.555840342419204214e-01
5.418720358752997868e+01,2.974627543473424396e+00,6.085026440086386046e+00,-8.305685246977827230e-02,5.210596684349165786e-01,-8.494694704274594610e-01
5.505666815833970418e+01,3.112253888204044472e+00,6.084369752202047898e+00,-8.219207594345498413e-02,5.311099651793531606e-01,-8.433069829779020754e-01
5.592214008683050963e+01,3.245248355965017595e+00,6.083701668782437011e+00,-8.140653724565223570e-02,5.409582221837397897e-01,-8.371004584549455174e-01
5.661153266857952815e+01,3.348239079985134481e+00,6.083158644730691123e+00,-8.255028177203921347e-02,5.485585700987927193e-01,-8.320270104693265889e-01
5.730414873043127955e+01,3.449005685380747366e+00,6.082602783731680951e+00,-7.938423086521986805e-02,5.568041473693078336e-01,-8.268417535189400702e-01
5.799577880013130482e+01,3.546853957558496973e+00,6.082036744938265294e+00,-7.821168147758754408e-02,5.647973293880770296e-01,-8.215150087469762497e-01
5.868650084892939844e+01,3.641738282294362250e+00,6.081459725267881034e+00,-7.693681010682511257e-02,5.728502254285091633e-01,-8.160412651803170547e-01
5.937630808156342255e+01,3.733601752490898207e+00,6.080870877201481228e+00,-7.554721175291889690e-02,5.810261200853816810e-01,-8.103710672123526360e-01
6.006525460589273280e+01,3.822396534679597835e+00,6.080269198803306629e+00,-7.405795528406193540e-02,5.892378857917534019e-01,-8.045583466764908431e-01
6.075333663192589029e+01,3.908068097247486605e+00,6.079653631452520912e+00,-7.246132379232216036e-02,5.976261610925808210e-01,-7.984937871593047465e-01
6.144059132751773689e+01,3.990568246295559618e+00,6.079022998865806215e+00,-7.075325121377548654e-02,6.061503044608469448e-01,-7.921968100445135885e-01
6.212705977781709521e+01,4.069850091090465583e+00,6.078376049507156154e+00,-6.893181024226673059e-02,6.148028834672316645e-01,-7.856626629903585846e-01
6.281276803152067600e+01,4.145865982659287852e+00,6.077711499689188557e+00,-6.699583862141014756e-02,6.235888280469704670e-01,-7.788764543510223737e-01
6.349773525835661303e+01,4.218568765212985738e+00,6.077028061837205897e+00,-6.493539907818564327e-02,6.325197295551258092e-01,-7.718174561838228032e-01
6.418200884933418138e+01,4.287915495513217934e+00,6.076324437365399511e+00,-6.275215334076886253e-02,6.415503715098941351e-01,-7.645098351666991254e-01
6.486559413006966679e+01,4.353860224729267259e+00,6.075599438475211223e+00,-6.043626591815382670e-02,6.506948426162671995e-01,-7.569304324404333428e-01
6.554852857110589071e+01,4.416361606232030113e+00,6.074851950794621480e+00,-5.798547991930894097e-02,6.599101622598508854e-01,-7.491036389343632695e-01
6.623085064973290059e+01,4.475379645372271398e+00,6.074081026903767722e+00,-5.540340430069327915e-02,6.691772968069555905e-01,-7.410345526559671825e-01
6.691258121698436412e+01,4.530874040126612101e+00,6.073285959013537294e+00,-5.268646994463018624e-02,6.785150859995795480e-01,-7.326946253083591598e-01
6.759373586199170347e+01,4.582805672046511347e+00,6.072466325606245441e+00,-4.981795889072698075e-02,6.879172349722718627e-01,-7.240773776331270728e-01
6.827437798423073900e+01,4.631140276897873775e+00,6.071621986159776441e+00,-4.680564714341763771e-02,6.972983957940214195e-01,-7.152511297569339455e-01
6.895451636718057387e+01,4.675840706242539113e+00,6.070753265533817000e+00,-4.364242567786946747e-02,7.066539884250089276e-01,-7.062120639892659479e-01
6.963418354627852125e+01,4.716872805996281670e+00,6.069860919735987181e+00,-4.032797077597492091e-02,7.159433611781906848e-01,-6.969926530157739553e-01
7.031340123072156700e+01,4.754202924028405164e+00,6.068946221620153736e+00,-3.685757707898500851e-02,7.251356796234313951e-01,-6.876189098250071741e-01
7.099240596089448729e+01,4.787808622507689904e+00,6.068010681694746111e+00,-3.509045620546517169e-02,7.340996498355251143e-01,-6.781344733861064400e-01
7.099890151311343800e+01,4.788112067210988698e+00,6.068001639670185909e+00,-3.509414248222106347e-02,7.341767675127620629e-01,-6.780507910237619784e-01
7.132988645258961924e+01,4.803118168712131819e+00,6.067538556220112511e+00,-3.445296987677697736e-02,7.384920511438941571e-01,-6.733813802474448718e-01
7.167053821956289994e+01,4.817626919303933164e+00,6.067057647399558995e+00,-3.259994488202995477e-02,7.429352887292992591e-01,-6.685689196742558016e-01
7.234871217037171220e+01,4.843666943129179003e+00,6.066088832736766356e+00,-2.555084969236208134e-02,7.517922303987224497e-01,-6.589048462351088098e-01
7.302649614681493517e+01,4.865878400062854325e+00,6.065108409944810930e+00,-2.149358537691111251e-02,7.602756488650849187e-01,-6.492449179858241770e-01
7.370401105010287779e+01,4.884235335812796563e+00,6.064120300498542449e+00,-1.729344142867372119e-02,7.685429892187491951e-01,-6.395643912900892403e-01
7.438135312939024857e+01,4.898709716127768843e+00,6.063128902550097621e+00,-1.379277531699060408e-02,7.765493555625733180e-01,-6.299054355412463391e-01
7.480705078871696401e+01,4.905807402151438623e+00,6.062506205122507374e+00,-1.160262941865641481e-02,7.814389484747860104e-01,-6.238738244206067929e-01
7.505825272062877218e+01,4.909267679736927903e+00,6.062139514349962788e+00,-1.164455196047812190e-02,7.842624383766403362e-01,-6.203199433849971856e-01
7.550031575946310625e+01,4.914039027144589511e+00,6.061496527640938048e+00,-7.025746895271288775e-03,7.891978723897470349e-01,-6.140988170449934724e-01
7.573508953243009501e+01,4.915887073526398865e+00,6.061156654998267612e+00,-7.048445477917004119e-03,7.917475903624118239e-01,-6.108077214407652278e-01
7.619291599965771411e+01,4.918116160576289531e+00,6.060498058922416220e+00,-2.314376141899998629e-03,7.966452359576322584e-01,-6.044427282125927059e-01
7.641164826217334394e+01,4.918537298130992497e+00,6.060185717669649641e+00,-2.320998910142660788e-03,7.989248985733181652e-01,-6.014263208437692354e-01
7.688485412900710969e+01,4.918017736198052603e+00,6.059516068852504489e+00,2.500487379457155823e-03,8.037786241552380417e-01,-5.949232479185678768e-01
7.708720606639340645e+01,4.917196298510546626e+00,6.059232537816956921e+00,2.506802233883782816e-03,8.058085264232991429e-01,-5.921708661240194793e-01
7.776217947775622008e+01,4.911847969867281449e+00,6.058300734477858995e+00,1.055343336160257176e-02,8.123496050879311925e-01,-5.830752474233186211e-01
7.843628955128279756e+01,4.902479368403405147e+00,6.057393995170951229e+00,1.556843713103930882e-02,8.185982860127531957e-01,-5.741554405405205896e-01
7.910981861937850113e+01,4.889073008847574897e+00,6.056513927738533809e+00,2.067334960055001655e-02,8.245497239841558246e-01,-5.654116777127492499e-01
7.978287420207425384e+01,4.871611390547997189e+00,6.055660695091484413e+00,2.585077047603667397e-02,8.302194164052177916e-01,-5.568370123200998556e-01
8.045558122929287492e+01,4.850076035834774757e+00,6.054832260148342193e+00,3.111602094196198182e-02,8.356581996015469693e-01,-5.483677294292951254e-01
8.112804960981165436e+01,4.824448497054575569e+00,6.054023971462308751e+00,3.131804047057727691e-02,8.410836772319267851e-01,-5.399976187309563080e-01
8.180037396239235647e+01,4.794711250530056645e+00,6.053228084487467520e+00,3.667773382366826956e-02,8.461757219125939367e-01,-5.316402839206794129e-01
8.247263464722468029e+01,4.760848495023282112e+00,6.052433350444475835e+00,4.209670888841952896e-02,8.511914553937016681e-01,-5.231643846493333472e-01
8.314493445127773441e+01,4.722844853358296291e+00,6.051624558454901326e+00,4.759167030672504378e-02,8.561846452895703896e-01,-5.144734065894841502e-01
8.381737898976039958e+01,4.680686155493660294e+00,6.050782379435299063e+00,5.315868985084633291e-02,8.612344591488642065e-01,-5.054199838430463165e-01
8.449004536384663311e+01,4.634361567488880951e+00,6.049883342968308320e+00,5.880050314502616171e-02,8.664326492781174727e-01,-4.958194884177050121e-01
8.516308637123881908e+01,4.583856193072762153e+00,6.048899975186563971e+00,6.452891391790380182e-02,8.718690603282320817e-01,-4.854692172640211467e-01
8.583659983765045354e+01,4.529158736075586944e+00,6.047801643373379221e+00,7.035411449047393462e-02,8.776367688356809804e-01,-4.741350024644108707e-01
8.651074720270965202e+01,4.470251018263752485e+00,6.046555623570442073e+00,7.628894782175479894e-02,8.838284789915663575e-01,-4.615487148326858358e-01
8.718569225285602897e+01,4.407109246272327141e+00,6.045129151512864674e+00,8.234323230877628463e-02,8.905379838383229441e-01,-4.473943354962350849e-01
8.786155317475515858e+01,4.339704672783824435e+00,6.043492588342673777e+00,8.853224363277385767e-02,8.978380523331213059e-01,-4.313338308317752889e-01
8.853846564562142873e+01,4.267992039899411338e+00,6.041623648782451284e+00,9.486950274792503579e-02,9.057651710102124776e-01,-4.130244937448651621e-01
8.921652580043493685e+01,4.191906553345091879e+00,6.039513653875944854e+00,1.013547661300567837e-01,9.143076619878264255e-01,-3.921335367104888392e-01
8.989586826020041599e+01,4.111343322602280637e+00,6.037175683670525927e+00,1.127875226825417604e-01,9.227753052431507674e-01,-3.684626314303054984e-01
9.039417820481672550e+01,4.049425958041425133e+00,6.035344138731986163e+00,1.136795224635293172e-01,9.300732345761177911e-01,-3.493433046411246745e-01
9.089007048753796880e+01,3.985362852470046846e+00,6.033459994570439022e+00,1.148431873628281003e-01,9.395938021629618442e-01,-3.224508167973765271e-01
