2.953926906519125595e+01,-1.970512609504660173e-01,-1.888388185750059067e+00,1.869595417290828565e-01,-3.500173457038906477e-01,9.178965014983195836e-01
2.998819009471981545e+01,2.361189739258276465e-02,-1.888231238218851082e+00,1.203255440171570739e-01,-2.252681363451945473e-01,9.668381613302911015e-01
3.058120151186011171e+01,3.180557626353976985e-01,-1.888160974611602816e+00,3.126496463419974753e-02,-5.937865585033500621e-02,9.977457978943483630e-01
3.117221528840239486e+01,6.130973303455378165e-01,-1.888190709842570980e+00,-3.482590526538044406e-02,6.711577434065099657e-02,9.971372168147679682e-01
3.176191510303356935e+01,9.075115030623877033e-01,-1.888275104771588664e+00,-8.001957040331891813e-02,1.565300446688249469e-01,9.844263372484728380e-01
3.235082935378286351e+01,1.200337226959202974e+00,-1.888382972410309613e+00,-1.097476963287290080e-01,2.179729205497863143e-01,9.697645327900652479e-01
3.293933206689502668e+01,1.490813038256979750e+00,-1.888493835629663886e+00,-1.289402256066780328e-01,2.600980383633557103e-01,9.569343909903298417e-01
3.352773873062830035e+01,1.778370345901263638e+00,-1.888595188290204785e+00,-1.415615562934494087e-01,2.891392807019997901e-01,9.467622732951006537e-01
3.386823803601610194e+01,1.943241861391931780e+00,-1.888646659967335495e+00,-1.475834523391389708e-01,3.014389949514218459e-01,9.419945100255827652e-01
3.438082696765720669e+01,2.189098297139446370e+00,-1.888712431865984920e+00,-1.514788645826330160e-01,3.174990599439266870e-01,9.360814604079493728e-01
3.489325276486383842e+01,2.431868589772792966e+00,-1.888763607251435106e+00,-1.549488001036180562e-01,3.295124201996268987e-01,9.313497915824286988e-01
3.540570498214751893e+01,2.671475605823890653e+00,-1.888800789768326993e+00,-1.571913976555922854e-01,3.392542366066415016e-01,9.274682891870354995e-01
3.591845909981279306e+01,2.907921815690444056e+00,-1.888825395617395930e+00,-1.585987899059577710e-01,3.474806179702100151e-01,9.241772795169803656e-01
3.643126897590727253e+01,3.141001792119669567e+00,-1.888839286004779794e+00,-1.594322046307267704e-01,3.547061816565659775e-01,9.212843734815029384e-01
3.694430102970418517e+01,3.370726416938446324e+00,-1.888844554478628091e+00,-1.598530887212935570e-01,3.612483162860492536e-01,9.186656867472284826e-01
3.745756527592342167e+01,3.597053274769148601e+00,-1.888843305841247044e+00,-1.599594229256335043e-01,3.672995273554600093e-01,9.162445308004594224e-01
3.797096998695364789e+01,3.819910042740856770e+00,-1.888837532120601237e+00,-1.598039084547694388e-01,3.729634601156161522e-01,9.139808358281736878e-01
3.848458471605717790e+01,4.039305136917997530e+00,-1.888829020870752107e+00,-1.594052584588090404e-01,3.782628369570651961e-01,9.118701605781786013e-01
3.899841891350771306e+01,4.255226478403618451e+00,-1.888819303036203268e+00,-1.587676062176906211e-01,3.831934753610793387e-01,9.099206600888904983e-01
3.951255013384172798e+01,4.467693493305946006e+00,-1.888809627012700165e+00,-1.578829606873679292e-01,3.877122186545220450e-01,9.081586900044392729e-01
4.002684888048764122e+01,4.676641930824574800e+00,-1.888800959662718215e+00,-1.567448236435343145e-01,3.917875744504124014e-01,9.066055133117268960e-01
4.054146208928983697e+01,4.882121002353562389e+00,-1.888793988473947527e+00,-1.553421652342555359e-01,3.953593534099402729e-01,9.052954177347894982e-01
4.105620158544257947e+01,5.084044926502300221e+00,-1.888789152352639888e+00,-1.536742402874154145e-01,3.984082575429862549e-01,9.042428259011222602e-01
4.157117708676281609e+01,5.282445641302436101e+00,-1.888786661208395001e+00,-1.517364419110191487e-01,4.008830462202911948e-01,9.034759739192425032e-01
4.208637050145243563e+01,5.477302409404870787e+00,-1.888786534153617414e+00,-1.495355164621935684e-01,4.027782981318081545e-01,9.029998736823994232e-01
4.260177928215610876e+01,5.668598804564483729e+00,-1.888788631743083091e+00,-1.470755094482685543e-01,4.040697709608337407e-01,9.028269018567134374e-01
4.311750912050516860e+01,5.856355529120512493e+00,-1.888792691326317108e+00,-1.443659920084315595e-01,4.047456633603224718e-01,9.029614655911036847e-01
4.363344994660783982e+01,6.040512127685479626e+00,-1.888798357356426649e+00,-1.414234503296731282e-01,4.048169192514874948e-01,9.033950794555974939e-01
4.414973914925543852e+01,6.221095204413596313e+00,-1.888805215542378457e+00,-1.382653224699123273e-01,4.042918322746454352e-01,9.041188057762659103e-01
4.466631187358464672e+01,6.398057310809298848e+00,-1.888812815786842014e+00,-1.349145988010045649e-01,4.032054523944983426e-01,9.051096144609844796e-01
4.518311856951874717e+01,6.571356639424539736e+00,-1.888820698465681680e+00,-1.313945577722928082e-01,4.015835778069269946e-01,9.063476707222297701e-01
4.570020446464509689e+01,6.740982536418968607e+00,-1.888828416864141380e+00,-1.277321297817455015e-01,3.994776231486508178e-01,9.078007114036229508e-01
4.621765594236672570e+01,6.906935309982988436e+00,-1.888835553364000219e+00,-1.239535343604987738e-01,3.969291471372898283e-01,9.094409125789341131e-01
4.673544886898210393e+01,7.069177989383869765e+00,-1.888841730721174450e+00,-1.200884017213372651e-01,3.940094053277651831e-01,9.112273943891697758e-01
4.725353003509398775e+01,7.227665261791216267e+00,-1.888846624116174766e+00,-1.161620643892249810e-01,3.907746205813544260e-01,9.131273573310197955e-01
4.777195315183415403e+01,7.382384883262488096e+00,-1.888849969730072687e+00,-1.121992450602961044e-01,3.872797989617497438e-01,9.151096583055204903e-01
4.829077679618515617e+01,7.533324578873355826e+00,-1.888851567375148921e+00,-1.082247903274361628e-01,3.835947202951936474e-01,9.171382040457342066e-01
4.880987886387677577e+01,7.680420146822441119e+00,-1.888851282615063631e+00,-1.042622903289395081e-01,3.797859730018914859e-01,9.191800637124210027e-01
4.932946071227677010e+01,7.823699582513465423e+00,-1.888849046723965586e+00,-1.003301884597546240e-01,3.759146147567544727e-01,9.212068473996005702e-01
4.984938376313535713e+01,7.963095543840611690e+00,-1.888844855049388816e+00,-9.644673642630786914e-02,3.720417525719088014e-01,9.231917251448568118e-01
5.036974340936718164e+01,8.098605726109171954e+00,-1.888838761805397670e+00,-9.262658576004900723e-02,3.682235721196274181e-01,9.251117319253376881e-01
5.089036784444569150e+01,8.230159242096339867e+00,-1.888830879335867019e+00,-8.914794699280091661e-02,3.644596419886436123e-01,9.269421842318315008e-01
5.130912899389078774e+01,8.333039951102774623e+00,-1.888823351547085583e+00,-8.701128874737605601e-02,3.614327399227869608e-01,9.283293651190981377e-01
5.141152758395225675e+01,8.357798062039472953e+00,-1.888821362352485211e+00,-8.681942672013259754e-02,3.606357718604579765e-01,9.286572172758897903e-01
5.193303143611454686e+01,8.481449001569663082e+00,-1.888810415037945889e+00,-8.168353332783209741e-02,3.577247823916305247e-01,9.302476984362506585e-01
5.245501124489948808e+01,8.601118622505916633e+00,-1.888798270748657693e+00,-7.822968622470183320e-02,3.546958924667579227e-01,9.317032467800006046e-01
5.297737529805843337e+01,8.716761708398928832e+00,-1.888785195282218998e+00,-7.487784971253502730e-02,3.519778875583051692e-01,9.330085070846997342e-01
5.350022869260772751e+01,8.828378145193148896e+00,-1.888771469948580473e+00,-7.162371430928450577e-02,3.495723993925720086e-01,9.341676408072923099e-01
5.402356838797949479e+01,8.935943639729169163e+00,-1.888757391584616974e+00,-6.864930381853265318e-02,3.474694820311586829e-01,9.351749740782357989e-01
5.447327523585703801e+01,9.025045843697036219e+00,-1.888745252956149923e+00,-6.695860033420961144e-02,3.457732373606471898e-01,9.359259661781059725e-01
5.454737788381488173e+01,9.039432304066943757e+00,-1.888743263416278850e+00,-6.690403586735328700e-02,3.454914672481358973e-01,9.360339182120431811e-01
5.507159287895646571e+01,9.138810786416732057e+00,-1.888729389182008500e+00,-6.240936289400500492e-02,3.444203928351109445e-01,9.367388453685863148e-01
5.559624028684331876e+01,9.234064832473041662e+00,-1.888716063073150098e+00,-6.000886295450896107e-02,3.433665278276206156e-01,9.372824355201108126e-01
5.592250487081808785e+01,9.291174911991301855e+00,-1.888708182540572267e+00,-5.988768191899154769e-02,3.426731383955344268e-01,9.375439113857678697e-01
5.644145393671486488e+01,9.378648666873617756e+00,-1.888696474564504957e+00,-5.499760518383204483e-02,3.426994488695845331e-01,9.378338611761287691e-01
5.696034287389248618e+01,9.461975741851675892e+00,-1.888685990997779118e+00,-5.229452011038358133e-02,3.427156140316329203e-01,9.379825643717187855e-01
5.747909178537678088e+01,9.541139378968637175e+00,-1.888676947960587382e+00,-4.963490462098316819e-02,3.430743130447954092e-01,9.379959445392648254e-01
5.799735598543956883e+01,9.616088752300667508e+00,-1.888669536678774019e+00,-4.700663522807346090e-02,3.437277632146719109e-01,9.378921052231824484e-01
5.851499582220885287e+01,9.686811811521714333e+00,-1.888663912196769434e+00,-4.454808593728426525e-02,3.446293674482899250e-01,9.376812182887721558e-01
5.897532971007640867e+01,9.746229180223995314e+00,-1.888660507008058653e+00,-4.329539672900755559e-02,3.455183856032190137e-01,9.374126913116885840e-01
5.903229915738910449e+01,9.753354767241068757e+00,-1.888660193965657097e+00,-4.330868605307540420e-02,3.456244408918775490e-01,9.373729799661035811e-01
5.954908224305862774e+01,9.815700074652104590e+00,-1.888658474715331215e+00,-3.922136586638177297e-02,3.472034654420361743e-01,9.369692834050731278e-01
6.006542182136993802e+01,9.873864773980455922e+00,-1.888658813328568886e+00,-3.663421718748971490e-02,3.488172111497530037e-01,9.364744990317507289e-01
6.058127843242304778e+01,9.927852117051171987e+00,-1.888661238034371470e+00,-3.449095943598163433e-02,3.505833920449708541e-01,9.358961795730484923e-01
6.092757494628042991e+01,9.961780675800307350e+00,-1.888664038738960604e+00,-3.321582159369250442e-02,3.518445780746190521e-01,9.354689209564096553e-01
6.109684691138158286e+01,9.977688648873119348e+00,-1.888665748913931131e+00,-3.327035673013079703e-02,3.524222513384355215e-01,9.352495068828415858e-01
6.161198673863886910e+01,1.002336657318709356e+01,-1.888672315657624612e+00,-2.878236780839966633e-02,3.546669950357211887e-01,9.345495695444269169e-01
6.212675550728162932e+01,1.006489802857505644e+01,-1.888680882655633830e+00,-2.610976823294459265e-02,3.568186313907825702e-01,9.338087300380260025e-01
6.264124451892836021e+01,1.010229585083788173e+01,-1.888691371294752619e+00,-2.340093766422995936e-02,3.589830500556444592e-01,9.330506770209116008e-01
6.315533651271277904e+01,1.013555749589079547e+01,-1.888703676609665871e+00,-2.099444608669308668e-02,3.611130920710358683e-01,9.322856686490512690e-01
6.354838878535640845e+01,1.015821714933502662e+01,-1.888714241934003502e+00,-1.963883200032187984e-02,3.626999265350336343e-01,9.316990284255665111e-01
6.366935042951952539e+01,1.016470734048391655e+01,-1.888717684900777183e+00,-1.966408459422098326e-02,3.631663042682855558e-01,9.315168056568738919e-01
6.418302476419067659e+01,1.018973377092275356e+01,-1.888733250856060142e+00,-1.505885843369158573e-02,3.653398768985787193e-01,9.307523865832444399e-01
6.469645439279574362e+01,1.021064677352032390e+01,-1.888750224042053283e+00,-1.220546283609971749e-02,3.673898463900405198e-01,9.299869501484733236e-01
6.520973230345191496e+01,1.022745339040987389e+01,-1.888768443539241337e+00,-9.315482228995992237e-03,3.693734385848724266e-01,9.292343540027073745e-01
6.572278265855408108e+01,1.024015432375288803e+01,-1.888787734086947445e+00,-6.532421699850110217e-03,3.712673766251326501e-01,9.285030223540617911e-01
6.618651320551359163e+01,1.024810784751081627e+01,-1.888805950966378600e+00,-5.063654129650224482e-03,3.728680365210202408e-01,9.278705657298406129e-01
6.623583177279874690e+01,1.024875669200287653e+01,-1.888807926205363197e+00,-5.065825817680045563e-03,3.730279512843280298e-01,9.278062755604759015e-01
6.674865776771576975e+01,1.025325837146923114e+01,-1.888828830126094260e+00,-4.316285979846736951e-04,3.746381485303484360e-01,9.271710043797239953e-01
6.726154445255443193e+01,1.025366284414026374e+01,-1.888850276058035016e+00,2.588275743652731099e-03,3.760266526163021927e-01,9.266052327452364290e-01
6.777424772874454106e+01,1.024997057372396370e+01,-1.888872074754500252e+00,5.293739444757959191e-03,3.772162178066625904e-01,9.261100913748470109e-01
6.817418893272457581e+01,1.024424624965844899e+01,-1.888889216992956976e+00,6.824488802583359229e-03,3.780168957227935667e-01,9.257735429902315127e-01
6.828713033009627509e+01,1.024217833029885583e+01,-1.888894067280467493e+00,6.828327131401169814e-03,3.782295055147419927e-01,9.256866722096955824e-01
6.879993643495913602e+01,1.023028825854980894e+01,-1.888916075311945164e+00,1.174190442643567069e-02,3.789786998196146284e-01,9.253308990644778520e-01
6.931284331909853336e+01,1.021429561538342767e+01,-1.888937948108022846e+00,1.481161699518243613e-02,3.795876438930140262e-01,9.250372082277222852e-01
6.982571211957689172e+01,1.019420381749179505e+01,-1.888959532492316518e+00,1.737612014330061280e-02,3.800303956167092601e-01,9.248107746215832314e-01
7.016794264708909168e+01,1.017851598565588489e+01,-1.888973708923064487e+00,1.891520819582676385e-02,3.802248317123012034e-01,9.247006500745312829e-01
7.033864946012036512e+01,1.017000835506991230e+01,-1.888980698572406469e+00,1.892008977869546679e-02,3.803229590501305268e-01,9.246601954351224562e-01
7.085185693711005683e+01,1.014169589752305356e+01,-1.889001334252604192e+00,2.096299280145831612e-02,3.803675967471975006e-01,9.245977743200376464e-01
7.136510691970343601e+01,1.010927571772227296e+01,-1.889021325662519457e+00,2.401095342705177396e-02,3.801017280196122283e-01,9.246329814969984628e-01
7.187872841093206944e+01,1.007272277299857066e+01,-1.889040597434131552e+00,2.703809779632609239e-02,3.795497927500989799e-01,9.247761329591681623e-01
7.239245454841241667e+01,1.003205130731804218e+01,-1.889059068915127204e+00,3.284587263834787968e-02,3.784918086497735534e-01,9.250216751166691065e-01
7.283288354457113201e+01,9.993910264146295575e+00,-1.889074225284929520e+00,3.429615666682811481e-02,3.776878299208770162e-01,9.252976152393040943e-01
7.290665333943687187e+01,9.987226500455165024e+00,-1.889076700751184168e+00,3.428485182197612419e-02,3.775633348539452205e-01,9.253488407673685634e-01
7.342104697928974133e+01,9.938266097773954755e+00,-1.889093449384147805e+00,3.591472711239385857e-02,3.764124233046237111e-01,9.257558101132192796e-01
7.393581104055837727e+01,9.885148460331578235e+00,-1.889109305758075008e+00,3.879435567311846633e-02,3.749457915862708934e-01,9.262346632142700598e-01
7.445073774414512968e+01,9.827890824809912829e+00,-1.889124267791867595e+00,4.421579367797576904e-02,3.729842479178331338e-01,9.267835315728236711e-01
7.483440250610890132e+01,9.782549452056906958e+00,-1.889134844866621865e+00,4.555714232620271947e-02,3.716807057370029033e-01,9.272421473196272856e-01
7.496619542216507170e+01,9.766446460660198170e+00,-1.889138368868605866e+00,4.550710787349100672e-02,3.712724966232288648e-01,9.274081282715527230e-01
7.548187949847412881e+01,9.700845514604331754e+00,-1.889151641502488488e+00,4.713501433348191855e-02,3.692973149167262936e-01,9.281151779919767364e-01
7.599814570823481574e+01,9.631036360965531173e+00,-1.889164153298442006e+00,4.979432378703785994e-02,3.669429013657854455e-01,9.289098085690833395e-01
7.651509865268550925e+01,9.556993377923756583e+00,-1.889175981159331608e+00,5.237985874498812811e-02,3.643333994540592924e-01,9.297943452399052289e-01
7.703255226760310848e+01,9.478733164034608194e+00,-1.889187211384271148e+00,5.760127729999862944e-02,3.610973751502286055e-01,9.307474300329943162e-01
7.750396002034634080e+01,9.403830580920315541e+00,-1.889197002167194439e+00,5.863099626522703250e-02,3.585419556174279654e-01,9.316705814497832083e-01
7.755081053958056714e+01,9.396198748240850662e+00,-1.889197955824789776e+00,5.859290355028912850e-02,3.583090099508247639e-01,9.317625904926675195e-01
7.806960908090606210e+01,9.309421260557154909e+00,-1.889208327725399705e+00,5.967224760812636641e-02,3.553479883444494170e-01,9.328274385141912539e-01
7.858913661915374860e+01,9.218359591393625152e+00,-1.889218461747954603e+00,6.194846541188721994e-02,3.520460695942271290e-01,9.339303788379350602e-01
7.910903782453740973e+01,9.123069029424643261e+00,-1.889228492201345810e+00,6.593374109799340910e-02,3.482812789846683743e-01,9.350683892067074288e-01
7.927672395523097748e+01,9.091447340133338884e+00,-1.889231728256488774e+00,6.574925775599187172e-02,3.473067840867045675e-01,9.354437625169603754e-01
7.979786916439854849e+01,8.990412982586068580e+00,-1.889241867316272527e+00,6.920308366117744470e-02,3.434025366042852134e-01,9.366352710983750773e-01
8.017128765792293166e+01,8.915454661740033870e+00,-1.889249274550184543e+00,7.005129528541646777e-02,3.408150442610946573e-01,9.375168913860396636e-01
8.031986162835040943e+01,8.885036155591473417e+00,-1.889252269965632891e+00,6.985701947322056626e-02,3.398698494682984017e-01,9.378744490883170748e-01
8.084278665619223148e+01,8.775286531454666417e+00,-1.889263100852111910e+00,7.081646208605135717e-02,3.360945448623140486e-01,9.391621189184584662e-01
8.136704381742870851e+01,8.661061996546397523e+00,-1.889274534364131508e+00,7.261747950115092498e-02,3.319875257031840166e-01,9.404844413643309586e-01
8.189268564437929854e+01,8.542328129421850491e+00,-1.889286739308436491e+00,7.432825035276478809e-02,3.277880559810935623e-01,9.418228610283528868e-01
8.241958588979196065e+01,8.419092096398539837e+00,-1.889299879041105523e+00,7.813659820566135061e-02,3.229939290151394582e-01,9.431699708113113756e-01
8.283314698420255695e+01,8.319413958385752039e+00,-1.889310928643058718e+00,7.864076048724445711e-02,3.197751165890208580e-01,9.442242877624288377e-01
8.294785916472747545e+01,8.291306657332796703e+00,-1.889314119202786912e+00,7.843874389614285958e-02,3.189536611685470091e-01,9.445188857207541533e-01
8.347745184628709580e+01,8.158964430749662711e+00,-1.889329615544043994e+00,7.895353630824461511e-02,3.148206907363050311e-01,9.458616557344622366e-01
8.400821983771250245e+01,8.022084296563962269e+00,-1.889346512272976453e+00,8.032641181148124365e-02,3.103837476276732343e-01,9.472114847139962990e-01
8.454035931496032674e+01,7.880598797514807963e+00,-1.889364953921107482e+00,8.161356048592266488e-02,3.059075865471331812e-01,9.485566800343134819e-01
8.507376329785535063e+01,7.734519368398356853e+00,-1.889385062938869320e+00,8.478521434078949148e-02,3.008066475493462733e-01,9.499088525849781472e-01
8.548660709935927571e+01,7.618540222770333159e+00,-1.889401806363793179e+00,8.501670568752855983e-02,2.974214559410587877e-01,9.509535410838643177e-01
8.560903666687494251e+01,7.583658358865079663e+00,-1.889406976213784395e+00,8.475608589084403233e-02,2.965097066707227391e-01,9.512614781197155089e-01
8.614620301499464006e+01,7.427980626021876809e+00,-1.889430795682091047e+00,8.493026075859222424e-02,2.921114304299698983e-01,9.526057752394924139e-01
8.668525256696941028e+01,7.267461421529119114e+00,-1.889456603979221327e+00,8.587521167755847451e-02,2.874910091525664790e-01,9.539257663339287818e-01
8.722622810268700277e+01,7.102061159528050283e+00,-1.889484466538313034e+00,8.674898696939360720e-02,2.828826208654106056e-01,9.552235529299413219e-01
8.776915467193163067e+01,6.931745706006412711e+00,-1.889514426818697634e+00,8.755760452955634043e-02,2.783125484306777642e-01,9.564913963413719244e-01
8.831405728291665014e+01,6.756481379781790864e+00,-1.889546505518961972e+00,9.013356509357026147e-02,2.731925103757336659e-01,9.577274104452309089e-01
8.878836050930200940e+01,6.600411727495034242e+00,-1.889576046514957364e+00,8.999368394122128634e-02,2.695387324304232002e-01,9.587752648929196431e-01
8.886080490791727016e+01,6.576287040232029035e+00,-1.889580689201735719e+00,8.982494036803985449e-02,2.690333310863598504e-01,9.589330252173273728e-01
8.940962505370787028e+01,6.391064619405533165e+00,-1.889616961347770019e+00,8.961458410951170239e-02,2.648507846520670728e-01,9.601162888859159361e-01
8.996087174571979972e+01,6.200666056186495467e+00,-1.889655291237716694e+00,9.016675496716683447e-02,2.604047433967727199e-01,9.612800455201137018e-01
9.051466574189618086e+01,6.005016924397827971e+00,-1.889695608278506356e+00,9.066261883670566346e-02,2.560127776032443125e-01,9.624124621229412924e-01
9.107104210668494204e+01,5.804071847334195233e+00,-1.889737808879641934e+00,9.110905596860696676e-02,2.516867317894501688e-01,9.635107311087172111e-01
9.163003359839440520e+01,5.597786851110198469e+00,-1.889781761547552730e+00,9.301273720066936812e-02,2.468328328618268896e-01,9.645839431277325460e-01
9.207052711164193681e+01,5.432147542901255122e+00,-1.889817375606877015e+00,9.279081166713776252e-02,2.437209852857498138e-01,9.653962640291794406e-01
9.219168251909465539e+01,5.386115019458310726e+00,-1.889827307929625277e+00,9.250390239752334653e-02,2.429673997892797532e-01,9.656137274712212060e-01
9.275596423910890564e+01,5.169035917285290438e+00,-1.889874256917449147e+00,9.216230336664606171e-02,2.390881049354261489e-01,9.666141877277308891e-01
9.332303497804826975e+01,4.946460060925702784e+00,-1.889922406122593879e+00,9.240476479705519997e-02,2.349632809170588699e-01,9.676019925896660601e-01
9.389302064502425083e+01,4.718307305140606367e+00,-1.889971525950519204e+00,9.258936412232698920e-02,2.308719576942353247e-01,9.685687114510019846e-01
9.446634850012694073e+01,4.484371521209105538e+00,-1.890021389385877937e+00,9.271140095424885985e-02,2.267938518462304931e-01,9.695200590487287329e-01
9.504312694427909491e+01,4.244569332022222419e+00,-1.890071719335574052e+00,9.276830817408651675e-02,2.227228596521747817e-01,9.704579170612579464e-01
9.562351964634552814e+01,3.998792704689318800e+00,-1.890122221972598382e+00,9.276909478804210019e-02,2.186835781553699842e-01,9.713760279610422765e-01
9.620757472762272755e+01,3.746981256111784564e+00,-1.890172573889312924e+00,9.270779798693118412e-02,2.146561888428202836e-01,9.722797872957608112e-01
9.679543170231812610e+01,3.489035216236973103e+00,-1.890222442534958747e+00,9.380312961948522599e-02,2.101126226620766424e-01,9.731668195492764184e-01
9.727745328113297774e+01,3.274197454969234755e+00,-1.890262488341120317e+00,9.322009230376213096e-02,2.070436704468426314e-01,9.738803483584507203e-01
9.738719157152951311e+01,3.224870554553233681e+00,-1.890271477682441192e+00,9.293389284033419517e-02,2.064080157727949671e-01,9.740426184650643471e-01
9.798298890805531869e+01,2.954387589043006024e+00,-1.890319320561351324e+00,9.213383686447329524e-02,2.026108290991422145e-01,9.749154876379739765e-01
9.858319600703140395e+01,2.677374877943364151e+00,-1.890365622064505313e+00,9.178862155412265134e-02,1.985561027270970891e-01,9.757819034102961364e-01
9.918796635229438152e+01,2.393716318703635881e+00,-1.890410008858467217e+00,9.134620942403150201e-02,1.944357710728459865e-01,9.766527535164014617e-01
9.979753935127217801e+01,2.103253221786060223e+00,-1.890452111071404095e+00,9.082082778160623093e-02,1.902904591274652002e-01,9.775178353391422714e-01
1.004119202638095771e+02,1.805937393946867031e+00,-1.890491544154872638e+00,9.017343303941677268e-02,1.860303972117940408e-01,9.783973851595823001e-01
1.010313165508307520e+02,1.501624007568320707e+00,-1.890527943369814334e+00,8.941437216638427332e-02,1.816920278393411026e-01,9.792819190967019249e-01
1.016558644761845756e+02,1.190201674836021128e+00,-1.890560948656795803e+00,8.849940341695214374e-02,1.771802445006387672e-01,9.801913163018419750e-01
1.022857361359094739e+02,8.715407400207890731e-01,-1.890590215229790205e+00,8.740531038609987424e-02,1.724615772243579259e-01,9.811306315152923396e-01
1.029215514358500343e+02,5.452793305689094261e-01,-1.890615431025871374e+00,8.607488729350186440e-02,1.674277746718560167e-01,9.821196739938780063e-01
1.036350990988184151e+02,1.737307914091611172e-01,-1.890638308765195008e+00,8.433076264905738084e-02,1.616429316185140630e-01,9.832394851351325959e-01
1.043546365019359143e+02,-2.066095896089623907e-01,-1.890655355862695508e+00,8.234399975801487415e-02,1.554643563205111434e-01,9.844035247893524465e-01
1.050804611915669966e+02,-5.959260445444722887e-01,-1.890666254737533469e+00,8.008692203723652425e-02,1.489965869815352006e-01,9.855892156402967785e-01
1.058129752665496994e+02,-9.944621654618194251e-01,-1.890670729526545912e+00,7.754129854908804742e-02,1.422106521024108505e-01,9.867945467258766312e-01
1.065524787071203150e+02,-1.402409522566397948e+00,-1.890668543142240754e+00,7.469397124287961709e-02,1.350945325687070431e-01,9.880132984580776156e-01
1.072994465094314194e+02,-1.820059166267091966e+00,-1.890659495790585121e+00,7.150824597255961423e-02,1.275913567498065115e-01,9.892456805266683917e-01
1.080541192022657526e+02,-2.247573941113340190e+00,-1.890643424166892794e+00,6.798794201482623312e-02,1.197235876946439598e-01,9.904766036056135148e-01
1.088171409537429213e+02,-2.685347568622441283e+00,-1.890620184287782557e+00,6.412133589009387513e-02,1.114795690196801331e-01,9.916959009569698003e-01
1.095888240548911483e+02,-3.133588419729362418e+00,-1.890589657675914692e+00,5.985602782515083570e-02,1.027773841897506729e-01,9.929018406832103016e-01
1.103698670867218539e+02,-3.592731424247662009e+00,-1.890551718015569760e+00,5.518783974613615528e-02,9.362515367711377046e-02,9.940767741694258586e-01
1.111608742714234950e+02,-4.063162812329136564e+00,-1.890506230795846898e+00,5.037410760440901025e-02,8.389100830348081295e-02,9.952008581230649131e-01
1.113147262658415286e+02,-4.155282197693423996e+00,-1.890496570626150286e+00,4.925339716680184055e-02,8.202462231476165266e-02,9.954125095665865564e-01
1.119625534624627505e+02,-4.545335168347034660e+00,-1.890453028162242477e+00,4.488676560088417783e-02,7.370331905097947389e-02,9.962695413565351155e-01
1.125706153249280987e+02,-4.914562311269162542e+00,-1.890407984210454861e+00,4.034743940839349147e-02,6.589543273392342582e-02,9.970104693923704797e-01
1.127756777250350240e+02,-5.039745764467088662e+00,-1.890391889481243926e+00,3.873078118392610236e-02,6.325510673440105924e-02,9.972455655759530080e-01
1.136009510975101193e+02,-5.546853848769148776e+00,-1.890322529687839204e+00,3.227200038493348300e-02,5.236149505279424216e-02,9.981066034382254371e-01
1.144392801987395103e+02,-6.067245763575872530e+00,-1.890244552937631495e+00,2.551291275869151109e-02,4.097411263381440377e-02,9.988344274084863805e-01
1.152916592570589387e+02,-6.601566332605782961e+00,-1.890157430452319876e+00,1.838754746625621481e-02,2.924207743729637793e-02,9.994032214303331108e-01
1.161591205300860281e+02,-7.150486978253980830e+00,-1.890060475033884968e+00,1.098910461638660449e-02,1.721887227956884689e-02,9.997913532418400973e-01
1.163203964750710497e+02,-7.253092744681038262e+00,-1.890041505670566169e+00,9.562058666308749511e-03,1.498282823328454805e-02,9.998420284685947124e-01
1.170429630145394526e+02,-7.714850045052188854e+00,-1.889952781709782093e+00,3.173653564081583764e-03,4.920949830449877251e-03,9.999828559409512652e-01
1.175646420929021474e+02,-8.050254612774706331e+00,-1.889884826828213349e+00,-1.497620188824584945e-03,-2.312398829969027330e-03,9.999962049655094498e-01
1.179446119159533737e+02,-8.295581250383172289e+00,-1.889833203776024151e+00,-4.914168877941399276e-03,-7.587717131765307765e-03,9.999591379116286038e-01
1.184333514402823653e+02,-8.612373546135231095e+00,-1.889764082415867019e+00,-9.333288958239061364e-03,-1.430115206275781731e-02,9.998541727506566890e-01
1.188063386165387385e+02,-8.855047981538698210e+00,-1.889709209790189970e+00,-1.270522071734802444e-02,-1.946787400268991039e-02,9.997297531074779142e-01
1.193790458926665963e+02,-9.229146859476513143e+00,-1.889621248901780293e+00,-1.791329965484437028e-02,-2.734002525840158876e-02,9.994656756058937219e-01
1.200455578554869476e+02,-9.666688136871263382e+00,-1.889512988188823739e+00,-2.403732722916522568e-02,-3.636245935613969388e-02,9.990495375351770013e-01
1.204173947589302429e+02,-9.911756165096122118e+00,-1.889449717792297534e+00,-2.738016954929914717e-02,-4.141934304545305534e-02,9.987666215573760553e-01
1.214373222863404180e+02,-1.058732699292027846e+01,-1.889265017240987055e+00,-3.670701969786443336e-02,-5.489006800467706448e-02,9.978174558201227118e-01
1.224401369173028513e+02,-1.125602451850372709e+01,-1.889066460195662378e+00,-4.570692684718849486e-02,-6.795072879015799650e-02,9.966411466997898705e-01
1.234270058631435916e+02,-1.191798443395317797e+01,-1.888853394737717073e+00,-5.443903688791767309e-02,-8.052311424812863550e-02,9.952649995526310356e-01
1.243989930011416050e+02,-1.257332934336654340e+01,-1.888625244424124494e+00,-6.286646145077588732e-02,-9.258261257883022843e-02,9.937184047167166856e-01
1.253570161297195966e+02,-1.322213249566501325e+01,-1.888381555050345106e+00,-7.102695901631721209e-02,-1.042317026855446305e-01,9.920135700927515954e-01
1.262110247575230062e+02,-1.380257836671107796e+01,-1.888147821710867591e+00,-7.810392937032535621e-02,-1.144317372411722544e-01,9.903560742121404470e-01
1.263020304920175363e+02,-1.386453603885524366e+01,-1.888121971647481967e+00,-7.883567642836246392e-02,-1.155038355049519960e-01,9.901736211926307485e-01
1.272347522632327355e+02,-1.450055847826934752e+01,-1.887846323188044240e+00,-8.666080625906150137e-02,-1.264544262359210691e-01,9.881797320041902921e-01
1.281559834932500621e+02,-1.513031122736198419e+01,-1.887554536084531387e+00,-9.416398328203810786e-02,-1.371440785440782295e-01,9.860652341365431228e-01
1.290663909056829937e+02,-1.575384458825227263e+01,-1.887246689290946078e+00,-1.015606120427952619e-01,-1.477219948981920994e-01,9.838006171500357500e-01
1.299665508462834680e+02,-1.637117501750784854e+01,-1.886922993223365985e+00,-1.088576919666348758e-01,-1.582117921530210580e-01,9.813862805865112282e-01
1.308570774127457526e+02,-1.698237045439880433e+01,-1.886583725878944406e+00,-1.160921679727685563e-01,-1.686824942326222709e-01,9.788099022153606832e-01
1.317384638382496007e+02,-1.758743935401560421e+01,-1.886229268068539522e+00,-1.232741088569380278e-01,-1.791603041475867686e-01,9.760661245547208598e-01
1.326112253402256727e+02,-1.818642673837649326e+01,-1.885860028041495884e+00,-1.304342660883744953e-01,-1.897041928987358850e-01,9.731388500243046691e-01
1.334758494772416100e+02,-1.877937835957271062e+01,-1.885476435518354865e+00,-1.375749139046726355e-01,-2.003256364319452032e-01,9.700220525597642585e-01
1.343327419028580607e+02,-1.936630191882132834e+01,-1.885078946115585907e+00,-1.447436862932685031e-01,-2.111088923854059496e-01,9.666862473595262406e-01
1.351822745300376027e+02,-1.994719880290514880e+01,-1.884668006246192240e+00,-1.519399973276711890e-01,-2.220681160345308325e-01,9.631199245436371514e-01
1.360248689777575919e+02,-2.052211977420165923e+01,-1.884243995568022134e+00,-1.591295231875759497e-01,-2.331608479215064866e-01,9.593298774908549653e-01
1.368608534175599232e+02,-2.109106585289419655e+01,-1.883807287213248527e+00,-1.663201876306976135e-01,-2.444137709143017756e-01,9.553007399630446539e-01
1.376905779055779533e+02,-2.165406594979114274e+01,-1.883358186021742098e+00,-1.734840578392880805e-01,-2.557929613173537398e-01,9.510379816895399019e-01
1.385143376439328620e+02,-2.221112354517931209e+01,-1.882896966026605501e+00,-1.806284758206940233e-01,-2.673291143041308660e-01,9.465244309409354129e-01
1.393324458245326127e+02,-2.276226509276306587e+01,-1.882423836003822570e+00,-1.876901839715104936e-01,-2.789303024976742540e-01,9.417909965535328221e-01
1.401451551014013432e+02,-2.330748601917484208e+01,-1.881938988856357797e+00,-1.946787083567316501e-01,-2.906346437249153758e-01,9.368199957192663296e-01
1.409527722852669456e+02,-2.384682688830440256e+01,-1.881442544653135540e+00,-2.015091601661666010e-01,-3.023108179622396863e-01,9.316663714614409342e-01
1.417555151284637986e+02,-2.438027652126523748e+01,-1.880934646110653752e+00,-2.081983730974994173e-01,-3.140078563747240037e-01,9.263112347232462795e-01
1.425536303042248392e+02,-2.490785022773919266e+01,-1.880415399801219412e+00,-2.146698999637499383e-01,-3.256077201037923530e-01,9.208129270695346591e-01
1.433473455804755190e+02,-2.542955701176902750e+01,-1.879884915628824649e+00,-2.209216418054512632e-01,-3.371174021649442354e-01,9.151751118444726441e-01
1.441368764844585542e+02,-2.594540333428369294e+01,-1.879343312316214432e+00,-2.269315235874255765e-01,-3.485107685700975511e-01,9.094186757445493763e-01
1.449224230205643380e+02,-2.645539041871617059e+01,-1.878790725963944030e+00,-2.326713452788947423e-01,-3.597556270531089284e-01,9.035706579397838611e-01
1.457042546336501516e+02,-2.695956840372069507e+01,-1.878227251426674238e+00,-2.386085174233438244e-01,-3.704458565093227129e-01,8.976835983842570421e-01
1.458304781230714013e+02,-2.704063662793964795e+01,-1.878135025219631160e+00,-2.394917636516309956e-01,-3.721898069463718262e-01,8.967265150246500616e-01
1.459334074985134748e+02,-2.710667483916853371e+01,-1.878059561551569612e+00,-2.403597755916486167e-01,-3.735387685618212217e-01,8.959330146048031240e-01
1.464462629249788677e+02,-2.743477701228075816e+01,-1.877680119616877752e+00,-2.435960865776616024e-01,-3.807982814528687587e-01,8.919941790429969375e-01
1.464823346946077720e+02,-2.745779447373638149e+01,-1.877653216588936136e+00,-2.438620529286861238e-01,-3.812140497470861700e-01,8.917438799435816188e-01
1.472571737167329218e+02,-2.795027970431809194e+01,-1.877068546445884278e+00,-2.480983794876225057e-01,-3.922992083749761716e-01,8.857474387227900481e-01
1.480287424623821266e+02,-2.843689249059821123e+01,-1.876473556302915124e+00,-2.526500419794455721e-01,-4.027831150456339104e-01,8.797350274496975597e-01
1.487972557496423747e+02,-2.891765976355702250e+01,-1.875868352987412946e+00,-2.568841561986620614e-01,-4.130359648546031992e-01,8.737344116095739910e-01
1.495628760438034988e+02,-2.939257737573799645e+01,-1.875253036266335549e+00,-2.608463577967656266e-01,-4.231517663639576265e-01,8.676991185008916529e-01
1.503257590472213963e+02,-2.986163902338842746e+01,-1.874627636617949733e+00,-2.645201717567934874e-01,-4.330855437967169319e-01,8.616646624343244909e-01
1.510860703457593104e+02,-3.032484631176355805e+01,-1.873992075717632488e+00,-2.679476684279251120e-01,-4.429221233291009141e-01,8.555840342419204214e-01
1.518439643676970263e+02,-3.078219565809110847e+01,-1.873346152963669020e+00,-2.711249807161679182e-01,-4.526509291312117433e-01,8.494694704274594610e-01
1.525996387274042831e+02,-3.123371078822329494e+01,-1.872689465079330873e+00,-2.740651274083162892e-01,-4.623003768107610822e-01,8.433069829779020754e-01
1.533533325320672134e+02,-3.167944034330496095e+01,-1.872021381659719763e+00,-2.770035731316293215e-01,-4.717328088302001343e-01,8.371004584549455174e-01
1.539547852784417330e+02,-3.203175244199492511e+01,-1.871478357607973653e+00,-2.808954143925208591e-01,-4.783605544176161573e-01,8.320270104693265889e-01
1.545600579084901369e+02,-3.238320081830680408e+01,-1.870922496608964147e+00,-2.810277352219096025e-01,-4.871920839604936271e-01,8.268417535189400702e-01
1.551655022510420281e+02,-3.273157358669343608e+01,-1.870356457815548046e+00,-2.829161785247887861e-01,-4.950469940645891298e-01,8.215150087469762497e-01
1.557712076557815237e+02,-3.307685745026918056e+01,-1.869779438145163786e+00,-2.847318970446984232e-01,-5.029954277408837937e-01,8.160412651803170547e-01
1.563771890083673668e+02,-3.341899706456280938e+01,-1.869190590078763980e+00,-2.864869451707134362e-01,-5.111007373031908330e-01,8.103710672123526360e-01
1.569835143379682734e+02,-3.375796818636185037e+01,-1.868588911680589382e+00,-2.881628616739948523e-01,-5.192764504048354990e-01,8.045583466764908431e-01
1.575902004347241530e+02,-3.409371879497759039e+01,-1.867973344329803664e+00,-2.898048583803606859e-01,-5.276559636042504886e-01,7.984937871593047465e-01
1.581972997404727153e+02,-3.442621800424826262e+01,-1.867342711743088746e+00,-2.913940268162214520e-01,-5.362030728102219479e-01,7.921968100445135885e-01
1.588048678472873121e+02,-3.475543759624149942e+01,-1.866695762384439128e+00,-2.929258104709371868e-01,-5.449115979155177980e-01,7.856626629903585846e-01
1.594129466746890387e+02,-3.508134304976132256e+01,-1.866031212566471975e+00,-2.944009665899118278e-01,-5.537865470815498403e-01,7.788764543510223737e-01
1.600215715743550504e+02,-3.540389773959999076e+01,-1.865347774714489093e+00,-2.958145892727300774e-01,-5.628423785602313378e-01,7.718174561838228032e-01
1.606308025206114962e+02,-3.572307945968453424e+01,-1.864644150242682485e+00,-2.971513821436906344e-01,-5.720365093448851468e-01,7.645098351666991254e-01
1.612406615673235990e+02,-3.603884754941655189e+01,-1.863919151352494419e+00,-2.984074637745174896e-01,-5.813856775060756155e-01,7.569304324404333428e-01
1.618511988873278824e+02,-3.635117759011897931e+01,-1.863171663671904454e+00,-2.995647336613252998e-01,-5.908508343750683567e-01,7.491036389343632695e-01
1.624624650843193479e+02,-3.666004679276215228e+01,-1.862400739781050918e+00,-3.006194530685873390e-01,-6.004129713844579275e-01,7.410345526559671825e-01
1.630744945180121874e+02,-3.696542551904768459e+01,-1.861605671890820712e+00,-3.015753255000105382e-01,-6.100909023201427361e-01,7.326946253083591598e-01
1.636873162239307362e+02,-3.726728326959257487e+01,-1.860786038483528193e+00,-3.024144912709899602e-01,-6.198850108441422702e-01,7.240773776331270728e-01
1.643010018013673346e+02,-3.756561185461001884e+01,-1.859941699037059193e+00,-3.031123835801668442e-01,-6.297131920976244412e-01,7.152511297569339455e-01
1.649155732360762272e+02,-3.786038006861056004e+01,-1.859072978411099752e+00,-3.036606991329469651e-01,-6.395738428657873342e-01,7.062120639892659479e-01
1.655310734422597818e+02,-3.815156833029218575e+01,-1.858180632613269934e+00,-3.040439988409873728e-01,-6.494293559817070349e-01,6.969926530157739553e-01
1.661475350996556131e+02,-3.843915349251941649e+01,-1.857265934497436932e+00,-3.042464330733663513e-01,-6.592528671255079020e-01,6.876189098250071741e-01
1.667651860907571972e+02,-3.872320281879696324e+01,-1.856330394572028641e+00,-3.059445915516633696e-01,-6.682301571357237568e-01,6.781344733861064400e-01
1.667711014326202132e+02,-3.872590337576923503e+01,-1.856321352547468662e+00,-3.059767312431465602e-01,-6.683003551770789752e-01,6.780507910237619784e-01
1.670726912457013498e+02,-3.886308864424951537e+01,-1.855858269097395929e+00,-3.069886845108530937e-01,-6.725440240745150788e-01,6.733813802474448718e-01
1.673834377901441712e+02,-3.900341225346264906e+01,-1.855377360276842191e+00,-3.069236006556603225e-01,-6.773577363595718603e-01,6.685689196742558016e-01
1.680031352085762535e+02,-3.928013070240500326e+01,-1.854408545614049553e+00,-3.036798458466554718e-01,-6.882026989444599563e-01,6.589048462351088098e-01
1.686238964575856869e+02,-3.955315073696390726e+01,-1.853428122822093904e+00,-3.030736277417356850e-01,-6.975868495298949146e-01,6.492449179858241770e-01
1.692458434076369826e+02,-3.982249329318050002e+01,-1.852440013375825867e+00,-3.022543396468188592e-01,-7.068236721831003821e-01,6.395643912900892403e-01
1.698690758248708619e+02,-4.008816819633782558e+01,-1.851448615427380595e+00,-3.019870313033773401e-01,-7.155578070290098402e-01,6.299054355412463391e-01
1.702615110110233729e+02,-4.025328481867661878e+01,-1.850825917999790571e+00,-3.017752971070434276e-01,-7.209113130328594909e-01,6.238738244206067929e-01
1.704933560513661632e+02,-4.035004359804906926e+01,-1.850459227227245540e+00,-3.028656695611857685e-01,-7.235161048933800298e-01,6.203199433849971856e-01
1.709018458253542008e+02,-4.051909566283008246e+01,-1.849816240518221244e+00,-3.004170343824433820e-01,-7.298165854218425785e-01,6.140988170449934724e-01
1.711190447341048184e+02,-4.060824034178590125e+01,-1.849476367875551031e+00,-3.013876131671277547e-01,-7.321744560265417423e-01,6.108077214407652278e-01
1.715431108506341502e+02,-4.078080329185022634e+01,-1.848817771799699416e+00,-2.988179319947470991e-01,-7.384827904760546957e-01,6.044427282125927059e-01
1.717459534517891200e+02,-4.086264985059725774e+01,-1.848505430546932615e+00,-2.996730228654608807e-01,-7.405960167074924216e-01,6.014263208437692354e-01
1.721853163631944597e+02,-4.103838913030425317e+01,-1.847835781729787463e+00,-2.970058566321519544e-01,-7.468961441942405521e-01,5.949232479185678768e-01
1.723734195664412141e+02,-4.111298246949868940e+01,-1.847552250694239895e+00,-2.977559299034319706e-01,-7.487823926357183302e-01,5.921708661240194793e-01
1.730018356480530599e+02,-4.135937836848574989e+01,-1.846620447355141970e+00,-2.927239638088364737e-01,-7.578495476374440543e-01,5.830752474233186211e-01
1.736309476356759092e+02,-4.160172165589564486e+01,-1.845713708048233981e+00,-2.903966795020907488e-01,-7.655163607865480557e-01,5.741554405405205896e-01
1.742610240657963345e+02,-4.184010124447884493e+01,-1.844833640615816561e+00,-2.878752603605812532e-01,-7.729407928026451602e-01,5.654116777127492499e-01
1.748921712420435028e+02,-4.207454093272894369e+01,-1.843980407968767388e+00,-2.851816263415217212e-01,-7.801307465467757218e-01,5.568370123200998556e-01
1.755245119895319021e+02,-4.230507009582497346e+01,-1.843151973025625168e+00,-2.823204896778550022e-01,-7.871391074191497195e-01,5.483677294292951254e-01
1.761581551814834370e+02,-4.253171254294143466e+01,-1.842343684339591503e+00,-2.841534442304166075e-01,-7.922495767729308414e-01,5.399976187309563080e-01
1.767931951567867657e+02,-4.275448724678063428e+01,-1.841547797364750272e+00,-2.810755325707354757e-01,-7.989713095617494432e-01,5.316402839206794129e-01
1.774297123799046858e+02,-4.297340946871344158e+01,-1.840753063321759253e+00,-2.779141849481002180e-01,-8.056442964727780209e-01,5.231643846493333472e-01
1.780678079710604038e+02,-4.318850321538499060e+01,-1.839944271332184078e+00,-2.746739212559136667e-01,-8.123246585535315312e-01,5.144734065894841502e-01
1.787075852257532915e+02,-4.339979466698316202e+01,-1.839102092312581815e+00,-2.713878691041639035e-01,-8.190844061726459957e-01,5.054199838430463165e-01
1.793491197340252370e+02,-4.360730248123696384e+01,-1.838203055845591294e+00,-2.680876581173690654e-01,-8.260097108813855282e-01,4.958194884177050121e-01
1.799925588506051781e+02,-4.381106973506160074e+01,-1.837219688063846945e+00,-2.647957916509203757e-01,-8.331883507425081881e-01,4.854692172640211467e-01
1.806379975715473165e+02,-4.401112237500506552e+01,-1.836121356250661751e+00,-2.615374721150828252e-01,-8.407105031565416109e-01,4.741350024644108707e-01
1.812855924941156047e+02,-4.420750365032892404e+01,-1.834875336447725047e+00,-2.583353032743371802e-01,-8.486669870558488649e-01,4.615487148326858358e-01
1.819355044846558371e+02,-4.440025247299548283e+01,-1.833448864390147870e+00,-2.552151013937802304e-01,-8.571485055615769566e-01,4.473943354962350849e-01
1.825878539344580531e+02,-4.458938617602127863e+01,-1.831812301219956751e+00,-2.521897886303938185e-01,-8.662282822042597363e-01,4.313338308317752889e-01
1.832427836158392154e+02,-4.477491328286950534e+01,-1.829943361659733814e+00,-2.492604041112706503e-01,-8.759452143308301686e-01,4.130244937448651621e-01
1.839004068783795844e+02,-4.495680946033256475e+01,-1.827833366753228050e+00,-2.464228250110863938e-01,-8.862883733303056344e-01,3.921335367104888392e-01
1.845608877212947618e+02,-4.513502749513816070e+01,-1.825495396547808458e+00,-2.389657395406075413e-01,-8.984045105437001855e-01,3.684626314303054984e-01
1.850464135315071132e+02,-4.526313389058874037e+01,-1.823663851609269582e+00,-2.408556417413475481e-01,-9.055096991991757882e-01,3.493433046411246745e-01
1.855304946479827777e+02,-4.538834854719731027e+01,-1.821779707447721552e+00,-2.433211276091532815e-01,-9.147788255123282530e-01,3.224508167973765271e-01
