-3.2686,-8.8323,-15.6612,0.5107858,-0.8169488,0.2677547
-3.2696,-8.8328,-15.6611,0.5511863,-0.7957772,0.2508631
-3.2705,-8.8333,-15.6610,0.5905398,-0.7723703,0.2338948
-3.2715,-8.8336,-15.6609,0.6287141,-0.7467881,0.2168550
-3.2726,-8.8339,-15.6608,0.6655803,-0.7190989,0.1997488
-3.2736,-8.8341,-15.6607,0.7010141,-0.6893788,0.1825815
-3.2748,-8.8343,-15.6606,0.7348959,-0.6577116,0.1653584
-3.2760,-8.8344,-15.6605,0.7671113,-0.6241884,0.1480847
-3.2772,-8.8345,-15.6604,0.7975517,-0.5889072,0.1307657
-3.2785,-8.8345,-15.6603,0.8261146,-0.5519725,0.1134067
-3.2799,-8.8344,-15.6602,0.8527041,-0.5134951,0.0960130
-3.2813,-8.8344,-15.6601,0.8772312,-0.4735916,0.0785899
-3.2828,-8.8342,-15.6600,0.8996143,-0.4323838,0.0611428
-3.2844,-8.8341,-15.6599,0.9197791,-0.3899983,0.0436770
-3.2860,-8.8339,-15.6599,0.9376596,-0.3465663,0.0261978
-3.2877,-8.8336,-15.6598,0.9531976,-0.3022226,0.0087106
-3.2895,-8.8334,-15.6597,0.9663435,-0.2571054,-0.0087792
-3.2914,-8.8331,-15.6596,0.9770562,-0.2113558,-0.0262664
-3.2933,-8.8328,-15.6595,0.9853034,-0.1651170,-0.0437455
-3.2953,-8.8325,-15.6594,0.9910615,-0.1185340,-0.0612113
-3.2974,-8.8322,-15.6593,0.9943160,-0.0717529,-0.0786583
-3.2996,-8.8319,-15.6593,0.9950615,-0.0249203,-0.0960812
-3.3019,-8.8316,-15.6592,0.9933013,0.0218171,-0.1134748
-3.3042,-8.8313,-15.6591,0.9890479,0.0683133,-0.1308337
-3.3066,-8.8310,-15.6590,0.9823228,0.1144231,-0.1481525
-3.3087,-8.8311,-15.6549,0.9879215,0.0836737,-0.1304220
-3.3109,-8.8311,-15.6507,0.9922379,0.0526683,-0.1126496
-3.3078,-8.8305,-15.6511,0.9949125,0.0223623,-0.0982299
-3.3047,-8.8299,-15.6516,0.9964509,-0.0080563,-0.0837895
-3.3016,-8.8293,-15.6520,0.9968489,-0.0385399,-0.0693315
-3.2986,-8.8287,-15.6524,0.9961043,-0.0690408,-0.0548590
-3.2958,-8.8280,-15.6528,0.9942973,-0.0985088,-0.0408520
-3.2930,-8.8274,-15.6533,0.9914233,-0.1279051,-0.0268369
-3.2902,-8.8267,-15.6537,0.9874857,-0.1571866,-0.0128166
-3.2874,-8.8261,-15.6541,0.9824902,-0.1863105,0.0012062
-3.2818,-8.8242,-15.6555,0.9739923,-0.2261640,0.0137431
-3.2762,-8.8223,-15.6568,0.9637271,-0.2655927,0.0262778
-3.2706,-8.8204,-15.6582,0.9517173,-0.3045128,0.0388084
-3.2651,-8.8185,-15.6595,0.9379897,-0.3428415,0.0513329
-3.2596,-8.8165,-15.6609,0.9229595,-0.3795975,0.0636517
-3.2541,-8.8146,-15.6622,0.9063528,-0.4156375,0.0759607
-3.2488,-8.8125,-15.6636,0.8883302,-0.4506597,0.0881773
-3.2435,-8.8104,-15.6649,0.8688263,-0.4848346,0.1003806
-3.2381,-8.8082,-15.6663,0.8505491,-0.5139405,0.1114960
-3.2328,-8.8060,-15.6677,0.8311953,-0.5422953,0.1225975
-3.2275,-8.8037,-15.6691,0.8107976,-0.5698560,0.1336837
-3.2223,-8.8014,-15.6705,0.7893905,-0.5965812,0.1447532
-3.2170,-8.7991,-15.6719,0.7670104,-0.6224307,0.1558046
-3.2118,-8.7968,-15.6733,0.7436951,-0.6473664,0.1668365
-3.2066,-8.7943,-15.6747,0.7223746,-0.6684814,0.1769393
-3.2013,-8.7918,-15.6762,0.7003852,-0.6888271,0.1870234
-3.1961,-8.7893,-15.6776,0.6777563,-0.7083803,0.1970879
-3.1909,-8.7867,-15.6790,0.6545184,-0.7271191,0.2071317
-3.1857,-8.7842,-15.6804,0.6307024,-0.7450227,0.2171536
-3.1805,-8.7816,-15.6819,0.6063403,-0.7620716,0.2271527
-3.1562,-8.7682,-15.6881,0.5858022,-0.7766276,0.2317011
-3.1319,-8.7547,-15.6944,0.5674784,-0.7887692,0.2362444
-3.1075,-8.7412,-15.7006,0.5514989,-0.7986693,0.2407826
-3.0953,-8.7344,-15.7037,0.5444816,-0.8027868,0.2430497
-3.0830,-8.7276,-15.7069,0.5385962,-0.8060611,0.2453155
-3.0585,-8.7140,-15.7131,0.5272705,-0.8121356,0.2498430
-3.0462,-8.7072,-15.7162,0.5215784,-0.8151068,0.2521048
-3.0339,-8.7003,-15.7192,0.5153414,-0.8172001,0.2580838
-3.0217,-8.6935,-15.7222,0.5090801,-0.8192151,0.2640531
-3.0094,-8.6866,-15.7253,0.5030458,-0.8215607,0.2682963
-2.9903,-8.6756,-15.7297,0.4829820,-0.8334252,0.2685718
-2.9713,-8.6646,-15.7342,0.4576154,-0.8475313,0.2688472
-2.9524,-8.6536,-15.7386,0.4318373,-0.8608656,0.2691226
-2.9335,-8.6426,-15.7430,0.4056712,-0.8734160,0.2693980
-2.9145,-8.6315,-15.7475,0.3812862,-0.8843711,0.2692744
-2.9050,-8.6259,-15.7497,0.3689816,-0.8895938,0.2692125
-2.8951,-8.6202,-15.7519,0.3695627,-0.8895834,0.2684488
-2.8940,-8.6239,-15.7580,0.3699241,-0.8895765,0.2679736
-2.9044,-8.6300,-15.7558,0.3705393,-0.8895638,0.2671645
-2.9145,-8.6359,-15.7535,0.3823913,-0.8847778,0.2663552
-2.9246,-8.6419,-15.7512,0.3941813,-0.8798333,0.2655456
-2.9346,-8.6477,-15.7489,0.4079692,-0.8737712,0.2647359
-2.9546,-8.6595,-15.7444,0.4352609,-0.8609982,0.2631160
-2.9646,-8.6654,-15.7421,0.4487580,-0.8542903,0.2623057
-2.9747,-8.6713,-15.7399,0.4614757,-0.8477384,0.2614953
-2.9869,-8.6781,-15.7367,0.4767055,-0.8395732,0.2605163
-2.9992,-8.6850,-15.7336,0.4894374,-0.8325212,0.2595371
-3.0115,-8.6919,-15.7304,0.4984766,-0.8273686,0.2588094
-3.0240,-8.6989,-15.7273,0.5045377,-0.8238291,0.2583550
-3.0491,-8.7129,-15.7209,0.5112370,-0.8196046,0.2586212
-3.0744,-8.7270,-15.7146,0.5142346,-0.8173919,0.2596790
-3.0997,-8.7412,-15.7082,0.5155162,-0.8162472,0.2607365
-3.1250,-8.7554,-15.7018,0.5159625,-0.8156266,0.2617937
-3.1504,-8.7696,-15.6955,0.5150467,-0.8158655,0.2628505
-3.1740,-8.7821,-15.6886,0.5141956,-0.8160855,0.2638319
-3.1977,-8.7947,-15.6817,0.5133439,-0.8163039,0.2648130
-3.2213,-8.8072,-15.6749,0.5124918,-0.8165206,0.2657938
-3.2450,-8.8198,-15.6680,0.5116391,-0.8167355,0.2667744
-3.2686,-8.8323,-15.6612,0.5107858,-0.8169488,0.2677547
-5.9076,-10.1379,-14.7672,0.5047805,-0.6409890,0.5782126
-5.8830,-10.1246,-14.7739,0.5065111,-0.6471505,0.5697743
-5.8584,-10.1112,-14.7806,0.5081559,-0.6532591,0.5612754
-5.8338,-10.0979,-14.7873,0.5097150,-0.6593137,0.5527170
-5.8092,-10.0845,-14.7941,0.5111885,-0.6653132,0.5440998
-5.7846,-10.0712,-14.8008,0.5125766,-0.6712565,0.5354249
-5.7599,-10.0579,-14.8075,0.5138796,-0.6771426,0.5266931
-5.7551,-10.0586,-14.8134,0.5142103,-0.6786912,0.5243720
-5.7805,-10.0727,-14.8069,0.5154476,-0.6847128,0.5152496
-5.8060,-10.0866,-14.8001,0.5155052,-0.6847892,0.5150905
-5.8314,-10.1006,-14.7933,0.5155627,-0.6848656,0.5149314
-5.8569,-10.1145,-14.7864,0.5156201,-0.6849419,0.5147722
-5.8824,-10.1284,-14.7796,0.5156776,-0.6850183,0.5146130
-5.9078,-10.1424,-14.7728,0.5157351,-0.6850946,0.5144539
-5.9328,-10.1563,-14.7664,0.5157915,-0.6851695,0.5142975
-5.9578,-10.1702,-14.7600,0.5158479,-0.6852444,0.5141410
-5.9828,-10.1840,-14.7537,0.5159043,-0.6853194,0.5139846
-6.0078,-10.1979,-14.7473,0.5159606,-0.6853942,0.5138282
-6.0328,-10.2118,-14.7409,0.5160170,-0.6854691,0.5136717
-6.0578,-10.2257,-14.7345,0.5160733,-0.6855439,0.5135152
-6.0828,-10.2396,-14.7281,0.5161296,-0.6856187,0.5133587
-6.1078,-10.2535,-14.7217,0.5161859,-0.6856935,0.5132022
-6.1328,-10.2674,-14.7153,0.5162422,-0.6857683,0.5130457
-6.1577,-10.2813,-14.7089,0.5163441,-0.6858087,0.5128891
-6.1827,-10.2951,-14.7026,0.5184098,-0.6843658,0.5127325
-6.2076,-10.3089,-14.6961,0.5198095,-0.6820481,0.5144011
-6.2326,-10.3227,-14.6897,0.5211852,-0.6797087,0.5161027
-6.2567,-10.3360,-14.6833,0.5222894,-0.6771666,0.5183233
-6.2807,-10.3491,-14.6768,0.5259268,-0.6692906,0.5248343
-6.2927,-10.3556,-14.6736,0.5273314,-0.6643465,0.5296842
-6.3047,-10.3621,-14.6703,0.5310780,-0.6574556,0.5345168
-6.3286,-10.3750,-14.6637,0.5382810,-0.6435653,0.5441298
-6.3526,-10.3879,-14.6571,0.5450941,-0.6295395,0.5536718
-6.3765,-10.4008,-14.6506,0.5515138,-0.6153893,0.5631416
-6.4005,-10.4137,-14.6440,0.5575372,-0.6011259,0.5725381
-6.4125,-10.4202,-14.6407,0.5603994,-0.5939553,0.5772084
-6.4245,-10.4269,-14.6376,0.5607896,-0.5941700,0.5766082
-6.4487,-10.4405,-14.6315,0.5590207,-0.6016651,0.5705217
-6.4731,-10.4544,-14.6257,0.5510552,-0.6208018,0.5576228
-6.4976,-10.4684,-14.6198,0.5412916,-0.6406461,0.5445879
-6.5222,-10.4822,-14.6137,0.5276787,-0.6563923,0.5391701
-6.5150,-10.4749,-14.6110,0.5222875,-0.6623995,0.5370686
-6.4906,-10.4612,-14.6172,0.5129099,-0.6610931,0.5476123
-6.4660,-10.4472,-14.6231,0.5088467,-0.6472306,0.5675981
-6.4414,-10.4332,-14.6290,0.5043296,-0.6330747,0.5872547
-6.4177,-10.4195,-14.6345,0.4995193,-0.6190933,0.6059735
-6.3939,-10.4058,-14.6401,0.4942811,-0.6048617,0.6243625
-6.3821,-10.3989,-14.6428,0.4915013,-0.5976559,0.6334303
-6.3701,-10.3922,-14.6458,0.4910100,-0.5956913,0.6356580
-6.3462,-10.3789,-14.6519,0.4907773,-0.5946936,0.6367709
-6.3223,-10.3656,-14.6581,0.4910491,-0.5956719,0.6356460
-6.2984,-10.3524,-14.6642,0.4915490,-0.5975717,0.6334728
-6.2744,-10.3392,-14.6704,0.4921385,-0.5998569,0.6308497
-6.2505,-10.3260,-14.6766,0.4927545,-0.6022093,0.6281218
-6.2266,-10.3128,-14.6829,0.4933616,-0.6045598,0.6253813
-6.2027,-10.2996,-14.6891,0.4939700,-0.6069211,0.6226077
-6.1787,-10.2864,-14.6953,0.4946205,-0.6093434,0.6197186
-6.1548,-10.2731,-14.7015,0.4953545,-0.6118783,0.6166271
-6.1309,-10.2599,-14.7077,0.4962098,-0.6145736,0.6132496
-6.1069,-10.2468,-14.7139,0.4972024,-0.6174504,0.6095447
-6.0820,-10.2331,-14.7206,0.4982160,-0.6204315,0.6056778
-6.0571,-10.2195,-14.7272,0.4992106,-0.6234017,0.6017966
-6.0322,-10.2059,-14.7339,0.5001863,-0.6263610,0.5979010
-6.0073,-10.1923,-14.7406,0.5011430,-0.6293092,0.5939913
-5.9824,-10.1787,-14.7472,0.5020807,-0.6322462,0.5900675
-5.9575,-10.1651,-14.7539,0.5029996,-0.6351719,0.5861297
-5.9326,-10.1515,-14.7605,0.5038995,-0.6380862,0.5821781
-5.9076,-10.1379,-14.7672,0.5047805,-0.6409890,0.5782126
