-2.9967,-8.8310,-15.6869,0.5196376,-0.8237021,0.2269177
-2.9969,-8.8311,-15.6869,0.5433477,-0.8105475,0.2186001
-2.9971,-8.8312,-15.6870,0.5666859,-0.7966524,0.2102665
-2.9973,-8.8313,-15.6870,0.5896277,-0.7820284,0.2019176
-2.9975,-8.8313,-15.6870,0.6121491,-0.7666879,0.1935540
-2.9978,-8.8313,-15.6871,0.6342263,-0.7506442,0.1851764
-2.9980,-8.8313,-15.6871,0.6558360,-0.7339115,0.1767852
-2.9983,-8.8313,-15.6871,0.6769556,-0.7165046,0.1683812
-2.9986,-8.8313,-15.6872,0.6975627,-0.6984393,0.1599650
-2.9989,-8.8312,-15.6872,0.7176357,-0.6797320,0.1515370
-2.9992,-8.8311,-15.6872,0.7371533,-0.6603999,0.1430981
-2.9995,-8.8310,-15.6873,0.7560950,-0.6404608,0.1346487
-2.9999,-8.8309,-15.6873,0.7744408,-0.6199335,0.1261896
-3.0003,-8.8308,-15.6873,0.7921715,-0.5988372,0.1177212
-3.0007,-8.8306,-15.6874,0.8092683,-0.5771919,0.1092443
-3.0011,-8.8305,-15.6874,0.8257132,-0.5550182,0.1007594
-3.0015,-8.8303,-15.6874,0.8414891,-0.5323372,0.0922672
-3.0020,-8.8301,-15.6875,0.8565792,-0.5091708,0.0837683
-3.0025,-8.8298,-15.6875,0.8709679,-0.4855413,0.0752633
-3.0030,-8.8296,-15.6876,0.8846401,-0.4614715,0.0667528
-3.0035,-8.8294,-15.6876,0.8975815,-0.4369849,0.0582374
-3.0041,-8.8291,-15.6876,0.9097787,-0.4121054,0.0497178
-3.0046,-8.8288,-15.6877,0.9212191,-0.3868571,0.0411946
-3.0052,-8.8286,-15.6877,0.9318908,-0.3612649,0.0326684
-3.0059,-8.8283,-15.6878,0.9417829,-0.3353539,0.0241398
-3.0065,-8.8280,-15.6878,0.9508853,-0.3091496,0.0156094
-3.0072,-8.8277,-15.6878,0.9591888,-0.2826778,0.0070779
-3.0079,-8.8274,-15.6879,0.9666851,-0.2559646,-0.0014541
-3.0086,-8.8270,-15.6879,0.9733667,-0.2290363,-0.0099860
-3.0094,-8.8267,-15.6879,0.9792270,-0.2019197,-0.0185171
-3.0101,-8.8264,-15.6880,0.9842605,-0.1746416,-0.0270470
-3.0109,-8.8260,-15.6880,0.9884625,-0.1472289,-0.0355748
-3.0118,-8.8257,-15.6881,0.9918291,-0.1197088,-0.0441001
-3.0126,-8.8243,-15.6867,0.9943374,-0.0915380,-0.0539802
-3.0135,-8.8229,-15.6854,0.9959487,-0.0633149,-0.0638551
-3.0144,-8.8214,-15.6841,0.9966619,-0.0350706,-0.0737237
-3.0153,-8.8200,-15.6827,0.9964772,-0.0068361,-0.0835851
-3.0124,-8.8193,-15.6825,0.9980743,-0.0330805,-0.0524721
-3.0097,-8.8186,-15.6822,0.9980094,-0.0593559,-0.0213080
-3.0069,-8.8178,-15.6819,0.9962834,-0.0855674,0.0098767
-3.0043,-8.8171,-15.6817,0.9929026,-0.1116205,0.0410519
-3.0016,-8.8164,-15.6814,0.9878787,-0.1374213,0.0721872
-2.9991,-8.8156,-15.6811,0.9812289,-0.1628765,0.1032522
-2.9965,-8.8149,-15.6809,0.9729757,-0.1878941,0.1342169
-2.9941,-8.8141,-15.6806,0.9631466,-0.2123834,0.1650510
-2.9914,-8.8134,-15.6815,0.9578671,-0.2377679,0.1611120
-2.9888,-8.8126,-15.6823,0.9519030,-0.2630173,0.1571705
-2.9863,-8.8119,-15.6831,0.9452580,-0.2881128,0.1532265
-2.9837,-8.8111,-15.6840,0.9379361,-0.3130356,0.1492800
-2.9812,-8.8103,-15.6848,0.9299421,-0.3377670,0.1453312
-2.9787,-8.8096,-15.6857,0.9212810,-0.3622886,0.1413800
-2.9762,-8.8088,-15.6865,0.9119585,-0.3865819,0.1374266
-2.9737,-8.8080,-15.6873,0.9019808,-0.4106289,0.1334710
-2.9687,-8.8059,-15.6885,0.8859464,-0.4426129,0.1385380
-2.9637,-8.8037,-15.6897,0.8687567,-0.4739625,0.1436014
-2.9587,-8.8015,-15.6909,0.8508381,-0.5039587,0.1486610
-2.9537,-8.7993,-15.6921,0.8318638,-0.5332671,0.1537167
-2.9488,-8.7970,-15.6933,0.8118604,-0.5618499,0.1587684
-2.9439,-8.7948,-15.6945,0.7908561,-0.5896703,0.1638160
-2.9390,-8.7924,-15.6956,0.7698150,-0.6155253,0.1688592
-2.9341,-8.7901,-15.6968,0.7479111,-0.6406156,0.1738981
-2.9293,-8.7877,-15.6980,0.7251707,-0.6649140,0.1789328
-2.9245,-8.7852,-15.6991,0.7016247,-0.6883898,0.1839629
-2.9196,-8.7827,-15.7002,0.6796560,-0.7087674,0.1889881
-2.9148,-8.7801,-15.7013,0.6570804,-0.7284271,0.1940084
-2.9100,-8.7775,-15.7025,0.6339220,-0.7473503,0.1990236
-2.9052,-8.7749,-15.7036,0.6102052,-0.7655193,0.2040336
-2.8952,-8.7694,-15.7059,0.5735710,-0.7912939,0.2118262
-2.8853,-8.7638,-15.7082,0.5358242,-0.8152705,0.2196054
-2.8753,-8.7580,-15.7106,0.5003924,-0.8355844,0.2267292
-2.8654,-8.7523,-15.7129,0.4641759,-0.8543179,0.2338409
-2.8553,-8.7464,-15.7153,0.4307109,-0.8699101,0.2403008
-2.8543,-8.7503,-15.7216,0.4277636,-0.8711493,0.2410752
-2.8788,-8.7642,-15.7157,0.4165094,-0.8757701,0.2440218
-2.9027,-8.7778,-15.7100,0.4273922,-0.8708403,0.2428438
-2.9146,-8.7846,-15.7071,0.4328117,-0.8683241,0.2422546
-2.9265,-8.7914,-15.7043,0.4407118,-0.8646464,0.2411632
-2.9383,-8.7980,-15.7014,0.4516842,-0.8594466,0.2394432
-2.9499,-8.8046,-15.6985,0.4654836,-0.8527432,0.2369683
-2.9733,-8.8178,-15.6927,0.4927801,-0.8386708,0.2319461
-2.9967,-8.8310,-15.6869,0.5196376,-0.8237021,0.2269177
